# .PCD v0.7 - Point Cloud Data file format
VERSION 0.7
FIELDS x y z rgb
SIZE 4 4 4 4
TYPE F F F U
COUNT 1 1 1 1
WIDTH 89
HEIGHT 1
VIEWPOINT 0 0 0 1 0 0 0
POINTS 89
DATA ascii
-0.27171332 0.14645584 1.6540713 4294114275
-0.28171623 0.15557957 1.6671427 4294114275
-0.27260071 0.14593026 1.6731067 4294114275
-0.26471698 0.035539985 1.708672 4294114275
-0.26608804 0.031568512 1.6987457 4294114275
-0.2644245 0.04253393 1.7082136 4294114275
-0.26312622 0.04349019 1.6985174 4294114275
-0.27958995 0.14610621 1.6934431 4294114275
-0.29323211 0.15374999 1.6926849 4294114275
-0.27314955 -0.0027111587 1.7298582 4294114275
-0.27351314 0.00894327 1.7256864 4294114275
-0.26598278 0.011968012 1.7159252 4294114275
-0.2646167 0.018600933 1.7101115 4294114275
-0.27034765 0.02896511 1.7253547 4294114275
-0.26474151 0.026354611 1.702518 4294114275
-0.26409081 0.031051997 1.704561 4294114275
-0.26630431 0.052515443 1.7253134 4294114275
-0.26152557 0.053402223 1.7140287 4294114275
-0.26314479 0.045274459 1.7052013 4294114275
-0.31253603 0.14436239 1.7240336 4294114275
-0.30039769 0.14270091 1.7216408 4294114275
-0.30349642 0.14486247 1.7186356 4294114275
-0.29056385 0.14524949 1.707954 4294114275
-0.29348364 0.15070687 1.6969068 4294114275
-0.287727 -0.062702633 1.7272333 4294114275
-0.27432159 -0.062216822 1.7356 4294114275
-0.30174682 -0.048394274 1.7347367 4294114275
-0.28533763 -0.047892056 1.7376605 4294114275
-0.2672123 -0.047343954 1.7458435 4294114275
-0.29381731 -0.032102134 1.7441617 4294114275
-0.28898627 -0.034049749 1.7417747 4294114275
-0.27834365 -0.0063684778 1.7341357 4294114275
-0.27435017 -0.0043885922 1.7311521 4294114275
-0.28933957 0.0079146437 1.7424748 4294114275
-0.28023598 0.018222829 1.7366208 4294114275
-0.27111959 0.0051900796 1.7237461 4294114275
-0.26679894 0.014272691 1.7164814 4294114275
-0.2843678 0.026432676 1.742505 4294114275
-0.26576361 0.033410374 1.712172 4294114275
-0.2779654 0.054362956 1.7425323 4294114275
-0.26502615 0.058626153 1.7235801 4294114275
-0.26637661 0.047963247 1.7207816 4294114275
-0.27658564 0.064748079 1.7422047 4294114275
-0.26938224 0.063309461 1.7314471 4294114275
-0.32101211 0.13722178 1.7350916 4294114275
-0.30156565 0.14047611 1.7213553 4294114275
-0.26339126 -0.067332909 1.7417153 4294114275
-0.25366262 -0.063950092 1.7564397 4294114275
-0.26439789 -0.050180648 1.7475389 4294114275
-0.25222185 -0.048140615 1.7630777 4294114275
-0.28689089 -0.032608941 1.7426764 4294114275
-0.27922106 -0.033257008 1.7403377 4294114275
-0.26710787 -0.032174513 1.7393446 4294114275
-0.28901523 -0.016698863 1.7429688 4294114275
-0.28354612 -0.011918786 1.738817 4294114275
-0.2768116 -0.012890554 1.7349763 4294114275
-0.30206734 0.014449837 1.7569522 4294114275
-0.27724949 0.0028675466 1.7299263 4294114275
-0.27244952 0.0041075842 1.7255715 4294114275
-0.29646844 0.029735109 1.7583789 4294114275
-0.29520866 0.04673294 1.7616829 4294114275
-0.27154744 0.056682862 1.7312748 4294114275
-0.29805744 0.061307754 1.764778 4294114275
-0.28801388 0.070177846 1.7538892 4294114275
-0.27645642 0.068360806 1.742029 4294114275
-0.27452695 0.067036673 1.7395788 4294114275
-0.31090695 0.13787709 1.7262958 4294114275
-0.3072463 0.13991871 1.7239778 4294114275
-0.28906325 -0.019722991 1.7420834 4294114275
-0.31110358 0.018158155 1.7724744 4294114275
-0.31548202 0.022579355 1.7807801 4294114275
-0.30773538 0.032206576 1.7728324 4294114275
-0.30326098 0.051386513 1.7710501 4294114275
-0.27348506 0.07045421 1.7393064 4294114275
-0.32424268 0.025336247 1.7927806 4294114275
-0.31449434 0.040134568 1.7835522 4294114275
-0.3245739 0.039862268 1.7936409 4294114275
-0.31650791 0.05100821 1.7857745 4294114275
-0.33140934 0.034745846 1.80584 4294114275
-0.35876247 0.062629282 1.8296994 4294114275
-0.33054602 0.046487104 1.8018709 4294114275
-0.34642556 0.033980258 1.8240036 4294114275
-0.34209397 0.031220706 1.817423 4294114275
-0.35449699 0.05603509 1.829608 4294114275
-0.35415998 0.052238133 1.8309802 4294114275
-0.3422778 0.045800824 1.8171206 4294114275
-0.34238863 0.063114852 1.8144872 4294114275
-0.35525596 0.045630388 1.8358716 4294114275
-0.35618222 0.056493375 1.8294729 4294114275
