# .PCD v0.7 - Point Cloud Data file format
VERSION 0.7
FIELDS x y z rgb
SIZE 4 4 4 4
TYPE F F F U
COUNT 1 1 1 1
WIDTH 66
HEIGHT 1
VIEWPOINT 0 0 0 1 0 0 0
POINTS 66
DATA ascii
-0.45526078 0.03530271 1.1398954 4283758619
-0.46526802 -0.00071976549 1.1614124 4283758619
-0.45100853 -0.0031271742 1.1568016 4283758619
-0.4371936 -0.00045537547 1.1513591 4283758619
-0.46741974 0.0061873421 1.1586863 4283758619
-0.4535386 0.0070844018 1.1515706 4283758619
-0.43511108 0.0041478914 1.1481469 4283758619
-0.48241615 0.029982876 1.1580985 4283758619
-0.46960893 0.026478684 1.150701 4283758619
-0.46020135 0.02067735 1.1479776 4283758619
-0.4600012 -0.022109808 1.176451 4283758619
-0.455084 -0.025696574 1.1781858 4283758619
-0.48202035 -0.004835404 1.1757985 4283758619
-0.46517545 -0.0085677505 1.1671169 4283758619
-0.45470622 -0.013842462 1.1663326 4283758619
-0.50068295 0.01801228 1.1789665 4283758619
-0.48688468 0.011362353 1.1694601 4283758619
-0.47458562 0.01156551 1.1601158 4283758619
-0.50197935 0.029887896 1.1747139 4283758619
-0.49152592 0.025700903 1.1668273 4283758619
-0.47830081 0.019143581 1.1591181 4283758619
-0.48248196 -0.02390347 1.1941621 4283758619
-0.4725318 -0.02420193 1.1863445 4283758619
-0.45530096 -0.027454374 1.1803532 4283758619
-0.50239748 -0.0034000168 1.1952862 4283758619
-0.49187595 -0.010318607 1.1894842 4283758619
-0.45584163 -0.023223674 1.1758114 4283758619
-0.50767905 0.010257727 1.1904975 4283758619
-0.49948412 0.010858089 1.1816626 4283758619
-0.52124172 0.027620783 1.1962535 4283758619
-0.5115841 0.025934335 1.1860434 4283758619
-0.5010547 -0.024906559 1.2148914 4283758619
-0.49307942 -0.026479028 1.2079401 4283758619
-0.52081168 -0.0045704092 1.2187274 4283758619
-0.51058489 -0.0094177937 1.2107825 4283758619
-0.49884167 -0.015376786 1.202235 4283758619
-0.52571344 0.010391334 1.2121624 4283758619
-0.51729536 0.0076380926 1.2041131 4283758619
-0.53194624 0.02622431 1.2096635 4283758619
-0.50919753 -0.0280567 1.2319576 4283758619
-0.52813274 -0.0082593942 1.2322001 4283758619
-0.51688606 -0.017405245 1.2279805 4283758619
-0.5453549 0.015073872 1.235907 4283758619
-0.53518295 0.0082241371 1.2261534 4283758619
-0.5487839 0.02822414 1.2310584 4283758619
-0.54051399 0.025148671 1.2221811 4283758619
-0.52340925 -0.028719852 1.2526026 4283758619
-0.51599431 -0.032539953 1.2486353 4283758619
-0.54219699 -0.0074109985 1.2524868 4283758619
-0.53516442 -0.012409016 1.2488759 4283758619
-0.56446195 0.018170714 1.2553171 4283758619
-0.55237508 0.013705314 1.2452694 4283758619
-0.56636071 0.0285239 1.2502445 4283758619
-0.55700785 0.027278891 1.2409122 4283758619
-0.52320492 -0.039366249 1.2673659 4283758619
-0.53302962 -0.030088034 1.2682571 4283758619
-0.54643357 -0.016301006 1.2681726 4283758619
-0.53607756 -0.020094255 1.2592256 4283758619
-0.58162278 0.02110989 1.2706312 4283758619
-0.57514769 0.019531639 1.2654676 4283758619
-0.58366829 0.027049905 1.2684073 4283758619
-0.57787186 0.027595511 1.2625096 4283758619
-0.53331697 -0.039472882 1.2821852 4283758619
-0.54947019 -0.02887056 1.289022 4283758619
-0.53759569 -0.035647932 1.2825593 4283758619
-0.55631006 -0.029777309 1.3003855 4283758619
