# .PCD v0.7 - Point Cloud Data file format
VERSION 0.7
FIELDS x y z
SIZE 4 4 4
TYPE F F F
COUNT 1 1 1
WIDTH 1468
HEIGHT 1
VIEWPOINT 0 0 0 1 0 0 0
POINTS 1468
DATA ascii
-0.12841748 0.20968696 0.68891382
-0.11048509 0.21510021 0.68871552
-0.089899078 0.21707463 0.68796146
-0.07017564 0.21752094 0.68900961
-0.050751746 0.21755233 0.68911403
-0.03001724 0.21692546 0.6889559
-0.010494068 0.21695115 0.6883446
0.010468883 0.21702869 0.68944657
0.029518198 0.21705361 0.68833172
0.050131626 0.2168396 0.68818092
0.07058993 0.21661735 0.68854719
0.090178236 0.21640183 0.68973523
0.11020624 0.21620174 0.68952239
0.12972778 0.21619998 0.68908685
0.14975999 0.21640393 0.68894941
0.1696496 0.21668623 0.68781936
0.19031513 0.21665581 0.68878418
0.20990507 0.21716112 0.68871057
0.22858214 0.21759816 0.68983352
0.25036189 0.21838304 0.6888091
0.26934376 0.21857484 0.68892884
0.29140306 0.21842594 0.68738151
0.31030649 0.21748635 0.6891101
0.32913414 0.21657233 0.6906842
0.34396908 0.21654058 0.69227451
-0.14297925 0.20904392 0.71048528
-0.12975195 0.21224123 0.70986152
-0.10954045 0.21487166 0.70894617
-0.089849204 0.21553025 0.70914048
-0.070517376 0.2161328 0.7100175
-0.049257603 0.21541634 0.70945078
-0.030026579 0.21544677 0.7086665
-0.0093717212 0.21552953 0.70929772
0.010673807 0.21578379 0.70932209
0.029375663 0.21578032 0.70941967
0.050631676 0.21545027 0.70956439
0.069861703 0.21522972 0.70852399
0.090209983 0.2149969 0.7092905
0.10936935 0.21494803 0.70950478
0.13021637 0.21484998 0.70815307
0.15037388 0.21490173 0.70969564
0.16995956 0.21500474 0.70870149
0.19088852 0.21501853 0.71000367
0.21002895 0.2155669 0.70866781
0.23019463 0.21628693 0.70890653
0.24935876 0.21666846 0.71019608
0.27053791 0.21696603 0.70979303
0.28930187 0.21675071 0.71040303
0.31120098 0.21581291 0.7098856
0.33040336 0.21489362 0.70741189
0.34797007 0.21432769 0.70914859
0.36026233 0.21344782 0.71907258
-0.14708397 0.20981719 0.72995889
-0.12953085 0.21208176 0.72993827
-0.11029509 0.21350968 0.7297889
-0.090284377 0.21367803 0.72843909
-0.069975339 0.21351485 0.72826791
-0.050081082 0.21363023 0.72923052
-0.030296091 0.21383324 0.72886515
-0.0099980086 0.21414693 0.72969544
0.0099270698 0.21457782 0.72882688
0.030353399 0.21448842 0.72918314
0.050147861 0.21423218 0.7298463
0.07019309 0.21381287 0.72945458
0.089683615 0.21363674 0.72993612
0.11072942 0.21355079 0.7288537
0.12992294 0.21343046 0.72867817
0.15063822 0.2133128 0.73019779
0.17000018 0.21337627 0.72957492
0.18975952 0.21347106 0.72923666
0.20940077 0.21410359 0.72928548
0.22928172 0.21491018 0.72806233
0.25057474 0.21536098 0.7293275
0.26932967 0.21545251 0.73049903
0.28924012 0.2152988 0.73095644
0.30873197 0.21457142 0.73005521
0.33042744 0.21337111 0.72840279
0.35090116 0.2123999 0.72954029
0.36351764 0.21200021 0.73154598
0.27437311 0.21561983 0.72901988
-0.16022298 0.20917815 0.75384039
-0.14926039 0.21003699 0.74982452
-0.13020337 0.21084972 0.75004804
-0.11056935 0.21125187 0.75016397
-0.089409143 0.21125348 0.74951744
-0.070044458 0.21159138 0.7474224
-0.050176598 0.21168159 0.74971187
-0.029670622 0.21215776 0.74995458
-0.0093177324 0.21264942 0.74999708
0.009808504 0.21311653 0.74890345
0.029884417 0.21314059 0.74944949
0.050033007 0.21289083 0.74898875
0.069678381 0.21250932 0.7502256
0.089388467 0.21218145 0.75057995
0.10991238 0.21191895 0.75015265
0.13000345 0.21165103 0.75000948
0.14993984 0.21156314 0.75036961
0.17037068 0.21161292 0.74981755
0.18972833 0.21171917 0.74954188
0.20970654 0.21225519 0.74903023
0.22954245 0.21302 0.74893689
0.25012609 0.21379979 0.7494303
0.27065167 0.21419801 0.74894857
0.28944007 0.21395132 0.74865812
0.31017917 0.21330683 0.74936068
0.33008841 0.21209753 0.74997205
0.34926158 0.21088138 0.75033152
0.36914632 0.20979649 0.75127423
0.38095525 0.20938738 0.7568925
-0.16165832 0.2088543 0.76991409
-0.14980507 0.20898007 0.76970863
-0.13029946 0.2089721 0.77061206
-0.10971606 0.20912588 0.76954776
-0.090966314 0.20909064 0.77037132
-0.069637418 0.20949826 0.76898378
-0.050002649 0.20987605 0.77084488
-0.030513035 0.21050058 0.76957291
-0.0101876 0.21110241 0.76868021
0.010331845 0.2114926 0.76937848
0.03025797 0.21150899 0.76995587
0.049869239 0.2112747 0.77017415
0.070183426 0.21097073 0.76979923
0.090267204 0.21078806 0.7697413
0.10990958 0.2103104 0.77120471
0.13015461 0.21001659 0.7706542
0.14969434 0.20994379 0.76946628
0.1701403 0.20984367 0.76882309
0.1899163 0.20952472 0.77053285
0.21020509 0.20982486 0.77052063
0.23093042 0.21057765 0.7697401
0.25007385 0.21178484 0.76906449
0.26991066 0.21240193 0.76960665
0.29015544 0.21228673 0.77021188
0.31046855 0.21173976 0.77075118
0.33064076 0.21077189 0.77039409
0.34999666 0.20966874 0.76866639
0.37089995 0.20842162 0.77011603
0.38479117 0.20830211 0.77186173
-0.16358522 0.20726028 0.78895038
-0.1500649 0.20717657 0.78972125
-0.13032459 0.20748723 0.78847921
-0.10991371 0.20712386 0.79063499
-0.09015172 0.20725802 0.78900051
-0.070469275 0.20775388 0.7883513
-0.050271288 0.20828615 0.79046583
-0.029884774 0.20912774 0.78807509
-0.010427527 0.20959917 0.78845525
0.010028447 0.20997809 0.78870815
0.030500028 0.20992827 0.78930748
0.049676012 0.2097 0.78970969
0.069842212 0.20940016 0.78881067
0.090840422 0.20912755 0.78933722
0.11000945 0.20874299 0.78924638
0.12955803 0.20835648 0.78983909
0.14997958 0.20809588 0.78902102
0.17012714 0.20803782 0.78768593
0.19021541 0.20782618 0.78801936
0.20995887 0.20776992 0.78946608
0.23020324 0.20847455 0.78881544
0.24990641 0.20932335 0.78823394
0.26975644 0.21028264 0.78799874
0.2891328 0.21036357 0.78904527
0.31134263 0.21043742 0.78840715
0.3296808 0.2098022 0.78890586
0.35009727 0.20872149 0.7892766
0.37018207 0.20765272 0.79039079
0.38930002 0.20695469 0.79037672
0.40074357 0.2069944 0.79609656
-0.16447411 0.20537496 0.81132811
-0.15064259 0.20546593 0.8097536
-0.13007712 0.20565699 0.80872953
-0.11009166 0.20557302 0.80884653
-0.089505054 0.20567293 0.80931729
-0.069663689 0.2062982 0.80846888
-0.049866382 0.20695581 0.8099373
-0.030300764 0.20756583 0.80939323
-0.0092719877 0.20798749 0.80975926
0.0099105714 0.2083021 0.80837083
0.029958466 0.20816247 0.80948818
0.050146136 0.20794076 0.80820775
0.069188595 0.20765978 0.80920589
0.090092734 0.20742588 0.80930072
0.11051296 0.20705338 0.80860943
0.12955107 0.206597 0.80987108
0.15057041 0.20616305 0.80923945
0.16976982 0.2058939 0.80900609
0.19019276 0.20579414 0.80896008
0.2100596 0.20602027 0.8083356
0.22990133 0.20639436 0.8080743
0.25045252 0.20703305 0.80838346
0.27007973 0.20794557 0.80821478
0.28987646 0.20860569 0.80807489
0.31050056 0.20874578 0.80847406
0.32978633 0.20856503 0.80857044
0.34938326 0.20796746 0.8090626
0.36880594 0.20689532 0.80978322
0.3917917 0.20561513 0.8089655
0.40435183 0.20596036 0.81024778
-0.166788 0.2038555 0.83115494
-0.14974929 0.20391549 0.83018249
-0.13010357 0.20386778 0.83114374
-0.1100968 0.20408107 0.82914811
-0.090318851 0.20421092 0.82986492
-0.07013151 0.20490964 0.82881767
-0.050899375 0.20547545 0.83015609
-0.029910766 0.20609532 0.83032733
-0.0076731588 0.20624843 0.83005834
0.010363329 0.20637961 0.82978946
0.029719077 0.20630616 0.8295511
0.049837131 0.2061251 0.82809228
0.070114344 0.20585471 0.82845694
0.090303384 0.20560312 0.82971424
0.1104173 0.20529352 0.82871509
0.13105816 0.20467035 0.83043796
0.14954486 0.20429701 0.82970285
0.17061782 0.20384245 0.83027935
0.19006109 0.20377192 0.83007944
0.20977712 0.20399138 0.82839352
0.23053123 0.20415056 0.82903814
0.25071698 0.20464911 0.83021909
0.27060115 0.20573898 0.82829684
0.29062593 0.20672862 0.82899654
0.30999935 0.20736618 0.82939804
0.32995945 0.20728546 0.83019668
0.35016975 0.20683147 0.83063233
0.36607108 0.20589015 0.83143091
0.38993654 0.20467299 0.82962984
0.40907446 0.20436238 0.83021837
0.42280665 0.20457979 0.83801275
-0.18097702 0.20246792 0.85108489
-0.17088182 0.2024578 0.85073954
-0.150379 0.20249735 0.85020107
-0.12997183 0.20265377 0.84920824
-0.11003547 0.20270769 0.84948069
-0.089941591 0.20287021 0.85039634
-0.070590183 0.20351218 0.84929186
-0.049427055 0.20415226 0.84894764
-0.029632965 0.20431609 0.8507272
-0.0097545879 0.20444812 0.84982628
0.01048658 0.20439324 0.84976292
0.030432483 0.20438492 0.84935814
0.050056171 0.2042051 0.847965
0.069812752 0.2038749 0.84967703
0.089000426 0.20375384 0.84984702
0.10967841 0.20358266 0.84860682
0.13007481 0.20286806 0.85031796
0.15045667 0.20230812 0.85069066
0.16926737 0.2019235 0.85013986
0.19008745 0.2018874 0.8487168
0.21000451 0.20170456 0.84948868
0.22905681 0.20198108 0.84915483
0.25100195 0.20250489 0.85040599
0.26956588 0.20387986 0.84866077
0.2897602 0.20484634 0.85003662
0.31000099 0.20572034 0.84992808
0.3302809 0.20586143 0.85022479
0.3514514 0.2052761 0.85063654
0.36933059 0.20453829 0.84930515
0.39062816 0.20321743 0.85251492
0.40996718 0.2027823 0.85072345
0.42596358 0.20362216 0.85212743
-0.1217185 0.2003295 0.87904388
-0.11131902 0.20042333 0.87868309
0.010777279 0.20150246 0.87829328
0.022175169 0.20135744 0.87881243
0.11532336 0.20045199 0.87887245
0.13231859 0.19999807 0.87902254
0.15053794 0.1998443 0.87509525
0.17031068 0.19957975 0.87279755
0.19020733 0.19933888 0.87270486
0.20936477 0.19919437 0.87360889
0.22852936 0.19935966 0.87425607
0.24958454 0.19973405 0.87636936
0.26912698 0.20120607 0.87281162
0.2809172 0.2014599 0.87918365
0.3736971 0.20285752 0.87007266
0.38776502 0.20222847 0.87208748
0.40100333 0.20175256 0.87908894
-0.18154177 0.2007491 0.87302268
-0.16942865 0.20103408 0.86978024
-0.15017053 0.20095754 0.87060452
-0.13020773 0.20113961 0.8687225
-0.10944907 0.20123999 0.86888403
-0.089878477 0.20121492 0.87152094
-0.069578849 0.20177098 0.87027246
-0.049879447 0.2023471 0.86971915
-0.029008839 0.2026134 0.8698687
-0.01068591 0.20244053 0.87015474
0.010355681 0.20247087 0.86859131
0.030150602 0.20217264 0.86999685
0.050005615 0.20200741 0.86960167
0.070341595 0.20182541 0.87018919
0.088938043 0.20182715 0.87006801
0.10971616 0.201489 0.87012959
0.13018186 0.20098329 0.86988324
0.14793204 0.20077007 0.86734492
0.1693633 0.20047456 0.86419898
0.18957509 0.20037244 0.86301678
0.21052748 0.20001104 0.86594486
0.23269194 0.20020589 0.86621529
0.24978055 0.20047741 0.86863583
0.27020451 0.20210767 0.86461484
0.28995761 0.20287479 0.87062484
0.30960193 0.2037219 0.86957932
0.32944894 0.20391732 0.86985469
0.34802446 0.20388076 0.86774951
0.36598 0.2037366 0.86453056
0.39441592 0.20238452 0.86521012
0.40924093 0.2019747 0.86953074
0.42912132 0.20254447 0.87020069
0.44296345 0.20479108 0.87603408
-0.18313348 0.19909433 0.89276201
-0.17187351 0.1989309 0.89433348
-0.14836046 0.19913375 0.89235055
-0.13058595 0.1992974 0.89074332
-0.10952608 0.19927973 0.89181042
-0.090291306 0.19948402 0.89101547
-0.071366787 0.19979335 0.89144588
-0.048485849 0.19987816 0.89546973
-0.032011684 0.20028673 0.89312315
-0.0016701722 0.19984692 0.89750785
0.010507645 0.20028372 0.89151925
0.028480275 0.20002025 0.89175546
0.052131362 0.19954443 0.8932398
0.070037715 0.19958343 0.89128679
0.088771276 0.19891062 0.89748842
0.11192631 0.19906166 0.89239049
0.13019019 0.19876242 0.89073688
0.15015255 0.19820219 0.89084315
0.16985171 0.19777405 0.88977379
0.18986604 0.19751206 0.89025313
0.21089271 0.19741075 0.89055359
0.2293085 0.19788714 0.88916433
0.24995561 0.19870859 0.88595158
0.27212429 0.19985345 0.88739151
0.28497785 0.20013864 0.89172935
0.31757939 0.20124739 0.89254642
0.3266058 0.20109451 0.89427006
0.37601185 0.2018515 0.88615775
0.38997149 0.20146556 0.88809246
0.40646756 0.20140536 0.89160389
-0.18133083 0.2000175 0.88196337
-0.16895445 0.19975276 0.88519603
-0.15190744 0.1998035 0.88429838
-0.13245919 0.20006515 0.88160026
-0.10124025 0.20023541 0.88100034
-0.089978956 0.2002432 0.88252741
-0.068884566 0.20068702 0.88311112
-0.050976492 0.20070082 0.88653582
-0.027698401 0.201107 0.88551807
-0.01015954 0.20081772 0.88822675
0.0014742794 0.20126638 0.88207084
0.033880871 0.20070359 0.88402307
0.04893744 0.20040888 0.88586122
0.070009775 0.20065418 0.88169307
0.091240861 0.20011342 0.88706952
0.10422113 0.20002751 0.88582277
0.12700781 0.19995494 0.88097179
0.29314473 0.20121719 0.88768739
0.30912554 0.20160738 0.88872564
0.33311939 0.20175964 0.88825065
0.34307164 0.20168428 0.89125621
0.3732343 0.20148985 0.89181441
0.41379595 0.20140205 0.88833982
0.4297941 0.20216447 0.89020431
0.44563082 0.20476058 0.88969767
-0.18468858 0.19751923 0.90873092
-0.17048454 0.19756983 0.90907067
-0.1502353 0.19766229 0.90947497
-0.12990814 0.19781487 0.90786451
-0.11035011 0.19776601 0.90884787
-0.090001807 0.19799455 0.90742785
-0.069851458 0.19817725 0.90883768
-0.050068181 0.19830118 0.91135812
-0.030834625 0.19874935 0.91127515
-0.006795872 0.19865403 0.91191
0.0093781166 0.19882733 0.90902936
0.030078845 0.19842623 0.90925372
0.050062608 0.19791527 0.90987545
0.07001549 0.1978858 0.90763909
0.089733936 0.19755752 0.90957767
0.10972486 0.19722 0.90942073
0.12963709 0.19670615 0.90923154
0.14905018 0.19603927 0.91023564
0.17043418 0.1953198 0.91139382
0.18962289 0.19540542 0.90909374
0.21134475 0.19524656 0.91039854
0.23008665 0.19553672 0.91088986
0.2505413 0.19584398 0.91343689
0.27073902 0.19688958 0.91076893
0.28881675 0.19794942 0.91076541
0.31145161 0.19858937 0.91158468
0.33043253 0.19934052 0.90934598
0.3413386 0.19909389 0.91568172
0.39451042 0.20073439 0.90654296
0.40832517 0.20115449 0.90940922
-0.013915458 0.19926514 0.90603286
0.29756436 0.19972715 0.90090573
0.30779436 0.1993565 0.90543348
0.3457658 0.20061432 0.90169281
0.37840578 0.20039271 0.90640396
0.39051211 0.20003182 0.9172529
0.41906172 0.20152214 0.91406155
0.42915723 0.20198989 0.9086442
0.44643441 0.2039748 0.91015524
-0.1857477 0.19547345 0.9285199
-0.17006956 0.19574386 0.92823905
-0.15023251 0.19596384 0.92957067
-0.12947798 0.19606455 0.93029064
-0.11000711 0.19610171 0.92881477
-0.089592807 0.1959393 0.92882931
-0.069949679 0.19626227 0.92929143
-0.051004417 0.19668648 0.92994928
-0.028695634 0.19731984 0.92952961
-0.0093665924 0.19756778 0.92782384
0.010304295 0.19738296 0.92909282
0.029992661 0.19685699 0.92877704
0.050578956 0.19622803 0.93023986
0.069740199 0.1957773 0.92856961
0.090097301 0.19545208 0.92837107
0.10966723 0.19495215 0.92905557
0.12989669 0.19445778 0.92879069
0.15031885 0.19402625 0.92848676
0.17014366 0.19318077 0.93143135
0.18931745 0.19328029 0.92853677
0.2099406 0.19320516 0.92875272
0.22996175 0.19322565 0.93061256
0.25024155 0.19408199 0.92984891
0.26991615 0.19451809 0.93073529
0.28940225 0.19530602 0.93003643
0.3095594 0.19629107 0.92717391
0.33043706 0.1967278 0.92989218
0.34416234 0.19722362 0.93212909
0.41037211 0.20081648 0.92960328
0.42176759 0.2017754 0.93709403
0.39515424 0.199736 0.92885405
0.4014056 0.20033768 0.9326269
0.43019775 0.20172229 0.92807156
0.44682416 0.20354271 0.93124831
0.46512911 0.20855269 0.93300223
-0.18956159 0.19321038 0.94975877
-0.16968799 0.19382516 0.9505927
-0.14969993 0.19442169 0.94842613
-0.13056387 0.19437099 0.95106477
-0.11023721 0.19423144 0.95145345
-0.090103798 0.1941974 0.9495241
-0.069750406 0.19440736 0.9509716
-0.048923597 0.19536358 0.95015365
-0.03102261 0.19590646 0.95017523
-0.010541204 0.19648311 0.9475944
0.010513119 0.19642715 0.94925404
0.030676071 0.19567788 0.95013881
0.050415706 0.19475769 0.949655
0.070243135 0.19367294 0.95059466
0.090182863 0.19345376 0.94835728
0.11012875 0.19274653 0.95004195
0.13081405 0.1923262 0.94998813
0.15087751 0.19185667 0.94962013
0.16994371 0.19135402 0.95037621
0.1893971 0.19102493 0.95055681
0.2095543 0.19108245 0.94931805
0.2289018 0.19115971 0.94962567
0.25049892 0.19192198 0.94983321
0.26934612 0.19253613 0.94756669
0.2914148 0.19285321 0.94927448
0.31093952 0.19301294 0.94902241
0.32953626 0.19373162 0.95055807
0.34845507 0.19440277 0.95047903
0.36183122 0.19529836 0.95605451
0.41467395 0.20159712 0.94988936
0.42426148 0.20258765 0.95280761
0.3980498 0.19974646 0.94877279
0.4043704 0.20029931 0.94939697
0.43349758 0.20306055 0.94666064
0.44936496 0.20439428 0.95055968
0.4672851 0.20795567 0.94899803
-0.20053963 0.19014603 0.97545362
-0.18929417 0.19138587 0.96880013
-0.17014936 0.19231451 0.96934968
-0.15014078 0.19285281 0.96910352
-0.1300406 0.19303317 0.96824896
-0.10976238 0.19279391 0.96969897
-0.090087175 0.19241267 0.9697662
-0.070451804 0.1924544 0.97156531
-0.050452027 0.19378433 0.9687078
-0.03106028 0.19500762 0.96934432
-0.009779687 0.1957116 0.9694916
0.011716315 0.1955065 0.96819395
0.030079726 0.19455537 0.97081453
0.048945166 0.19351022 0.96938097
0.07018964 0.19198747 0.97044468
0.090409167 0.19180822 0.9666068
0.10790931 0.19119595 0.96981913
0.12894672 0.19069986 0.96792364
0.15008558 0.19010577 0.96971571
0.17103997 0.18969581 0.96832156
0.18971325 0.18930879 0.9690128
0.21023339 0.18907404 0.96834612
0.22985651 0.18952212 0.9666326
0.24988683 0.19003747 0.96728474
0.26749778 0.19043884 0.96837574
0.29288882 0.19064383 0.9676367
0.31035 0.19032352 0.96796215
0.32950738 0.18999568 0.96929151
0.35013059 0.19222775 0.96899807
0.36418432 0.193784 0.97119999
0.41553763 0.201111 0.9703232
0.42680597 0.20252021 0.96971136
0.39501664 0.1988468 0.96091104
0.40799877 0.20022455 0.96954787
0.43468794 0.20357534 0.96418887
0.44919056 0.20501494 0.97112048
0.47104189 0.20818166 0.96724385
0.49130386 0.21648195 0.9740172
-0.20255864 0.18829376 0.99087095
-0.18958868 0.18960094 0.98838335
-0.16961028 0.19069344 0.98937917
-0.14985512 0.19111858 0.98977542
-0.12982176 0.19128171 0.98800761
-0.10894404 0.19100468 0.98861843
-0.089772895 0.19023636 0.99150133
-0.070062317 0.19087844 0.98991233
-0.049442556 0.19236271 0.98946285
-0.030040868 0.19384442 0.9889037
-0.010873615 0.19451874 0.98905736
0.010506718 0.19436374 0.98873562
0.030255899 0.19326761 0.9889766
0.049189344 0.19184998 0.99056417
0.069774769 0.1905143 0.98954457
0.090405218 0.19032235 0.98836148
0.11056771 0.18987884 0.99027318
0.12999915 0.18945314 0.98673522
0.14964466 0.18869336 0.9896037
0.1700177 0.18808421 0.98886418
0.18987964 0.18752781 0.98868316
0.20926885 0.18720518 0.98888689
0.22998925 0.18730722 0.98927134
0.25054666 0.18770111 0.98998141
0.26539472 0.18835954 0.98664117
0.31389204 0.18672505 0.9865495
0.33000392 0.18690778 0.98895103
0.34960046 0.18904881 0.98944104
0.36825165 0.19137266 0.99011916
0.38222945 0.19240206 0.99685448
0.41528118 0.19951151 0.98906499
0.42681026 0.20135966 0.9892506
0.44207841 0.20402884 0.98869866
0.41048583 0.19880757 0.98837972
0.4512423 0.20535706 0.98914719
0.46724409 0.20820017 0.98979706
0.48831138 0.21348721 0.98847139
0.50310272 0.22001916 0.99507785
0.37521696 0.18753238 1.0200108
0.37987924 0.18819284 1.0200559
-0.2027394 0.18653557 1.0091971
-0.19048141 0.18791674 1.009059
-0.16990583 0.18894966 1.0119182
-0.14983048 0.18962494 1.0089536
-0.13037163 0.18923953 1.0103211
-0.10984256 0.18898094 1.0091473
-0.091135919 0.18855564 1.0090772
-0.071141064 0.18912748 1.0082777
-0.050060764 0.19081403 1.0090265
-0.030423591 0.19246024 1.0095221
-0.010318914 0.19308175 1.0088391
0.0099823689 0.1926149 1.0101683
0.030229766 0.19153608 1.0088893
0.051392082 0.1899036 1.0091482
0.069438316 0.18917058 1.0076725
0.090303496 0.1889617 1.0102681
0.11060393 0.18887085 1.0103521
0.12977076 0.18831968 1.0072879
0.15019052 0.18736427 1.0089692
0.16974653 0.1865005 1.0094551
0.19062895 0.18588686 1.0081788
0.20960717 0.1854938 1.0097785
0.22920127 0.18589501 1.0115095
0.24961226 0.18613549 1.0121506
0.26927188 0.18696953 1.0099347
0.289924 0.18674244 1.0122432
0.3136054 0.18476412 1.0113111
0.33080545 0.18436779 1.0089154
0.35018852 0.18610094 1.009829
0.36990952 0.18834706 1.0102477
0.3904857 0.19124369 1.0123295
0.41304144 0.19580425 1.011187
0.42853352 0.19935693 1.0099711
0.44329822 0.20283011 1.0081675
0.39919621 0.19246246 1.0150855
0.41003835 0.19500846 1.0111117
0.45385289 0.20559418 1.0102458
0.46891165 0.20850603 1.008883
0.48899132 0.21266152 1.0110736
0.50335449 0.21433319 1.0093192
0.4151594 0.19611184 1.0123926
0.51199657 0.21535726 1.01195
0.37134111 0.18516065 1.0303361
0.38505745 0.18715619 1.0303775
-0.20402031 0.18458037 1.0311581
-0.18983683 0.18641548 1.0295141
-0.17046548 0.18766406 1.029705
-0.1503101 0.18788993 1.0284463
-0.129411 0.18751045 1.0300772
-0.11050864 0.187418 1.0279887
-0.089669257 0.18661836 1.0283844
-0.069806471 0.18773238 1.0293223
-0.050796628 0.18928596 1.029212
-0.029052895 0.19085646 1.0298102
-0.0091546467 0.19120011 1.0281626
0.010442363 0.1901467 1.0299573
0.029608935 0.1890918 1.0298357
0.048633043 0.18806946 1.0292103
0.070154727 0.18739425 1.0294646
0.089395538 0.18753201 1.029263
0.10981964 0.18766317 1.0312475
0.13030961 0.18729064 1.0264293
0.15080053 0.18593529 1.0304018
0.17056115 0.18487553 1.0299152
0.18790649 0.18453452 1.0276223
0.21137582 0.18427101 1.0290551
0.22970653 0.18409757 1.0297856
0.2494331 0.1838474 1.0310348
0.27017751 0.18420185 1.0297341
0.28973559 0.18454891 1.0286524
0.30875283 0.18354979 1.0289062
0.33028862 0.18260601 1.0283191
0.35042033 0.18310487 1.0290695
0.36294228 0.18477032 1.027545
0.39363337 0.18912722 1.028026
0.40861511 0.19200408 1.0276647
0.42486677 0.19525614 1.0297925
0.44575337 0.20219493 1.027317
0.40209121 0.19212499 1.0197325
0.40945801 0.1935064 1.0201437
0.45676884 0.2056337 1.0343479
0.4710426 0.20942467 1.029472
0.48790962 0.21181913 1.0311538
0.50386423 0.21081378 1.0302607
0.51371282 0.21370596 1.0295092
0.51914817 0.21227214 1.0309684
0.20168823 0.18199857 1.0542344
0.27483717 0.18007633 1.0540121
0.29841894 0.18079464 1.054088
0.35768169 0.18143936 1.0536672
0.36734486 0.18215153 1.0510986
0.51773757 0.17325594 1.0589185
-0.206305 0.18260095 1.0517973
-0.19023144 0.18492772 1.0499195
-0.1693864 0.18620585 1.0498282
-0.14841378 0.18639374 1.0493535
-0.13063164 0.18641289 1.0466202
-0.1106402 0.18625861 1.0416124
-0.088276871 0.18564054 1.0471715
-0.069484316 0.18654729 1.0489802
-0.051140003 0.18798409 1.0464542
-0.028511886 0.18903199 1.0490067
-0.008747383 0.18857826 1.0487673
0.010262198 0.18759461 1.0493056
0.029304111 0.18688914 1.0474761
0.050980087 0.18562901 1.0492301
0.06974075 0.18534584 1.0498532
0.090010814 0.18586622 1.0496354
0.10951492 0.18598384 1.0517709
0.12982145 0.18564825 1.0491216
0.1490856 0.18442667 1.0510434
0.16921115 0.18313514 1.0502732
0.19034126 0.18280873 1.04928
0.20999025 0.18241869 1.0477043
0.23018369 0.18157415 1.0484803
0.25076535 0.18086924 1.0489806
0.26929602 0.18156584 1.046705
0.28849643 0.18122078 1.0490272
0.30978239 0.18074109 1.0491365
0.32930791 0.18046755 1.0488677
0.34915552 0.18138854 1.0485269
0.36158118 0.18271258 1.0402924
0.39882323 0.1860856 1.0453496
0.41093871 0.18753238 1.0470827
0.42575586 0.18842125 1.0506473
0.44766715 0.19852194 1.044536
0.51905167 0.18687057 1.0588932
0.47161725 0.20316288 1.048345
0.49333346 0.20626505 1.0475092
0.50755572 0.20432855 1.0510842
0.52775812 0.20811616 1.0547786
0.51432616 0.20948388 1.0476707
0.52076399 0.21237081 1.04488
0.53345734 0.15781534 1.0647486
-0.21791795 0.17813888 1.0789388
0.17846212 0.17993832 1.0790844
0.19225122 0.18031114 1.0713828
0.2077188 0.17958215 1.0710261
0.22919205 0.17685714 1.0787483
0.24860856 0.1754356 1.0783134
0.27184954 0.1769349 1.0708783
0.2906099 0.17827219 1.0681548
0.30531371 0.17803213 1.0724978
0.35668516 0.17983077 1.0700752
0.36612821 0.18038142 1.0706998
0.3834978 0.17984435 1.0666195
0.52534717 0.16932659 1.0700364
0.52975982 0.16470361 1.0648813
-0.20917392 0.18053164 1.0701448
-0.19050726 0.18337689 1.0705229
-0.17040451 0.18505649 1.071372
-0.15039575 0.18567467 1.0696558
-0.13236162 0.18541686 1.0676714
-0.10290808 0.18483967 1.0667255
-0.089574762 0.1848546 1.069786
-0.070305243 0.18544574 1.0702481
-0.049820036 0.18625635 1.0689962
-0.029109322 0.18649256 1.0697715
-0.0088182511 0.18573521 1.069765
0.0096512791 0.1846348 1.0703046
0.030741923 0.18427178 1.0667839
0.050377663 0.18303232 1.0699277
0.07071925 0.18334322 1.0686986
0.089962065 0.18374979 1.0696769
0.11047402 0.1840902 1.0688255
0.12998529 0.18315795 1.0707053
0.1499844 0.18203098 1.0707079
0.16950205 0.18115348 1.0691223
0.18305683 0.18130325 1.0658894
0.21872158 0.17966811 1.0648897
0.23040104 0.17843027 1.0666374
0.25040299 0.17774013 1.065886
0.26232415 0.17748083 1.0666462
0.31436568 0.17859125 1.0686151
0.33067203 0.17844296 1.069494
0.34620115 0.17923369 1.0687938
0.41520754 0.18227258 1.0631837
0.42818809 0.17978209 1.0666056
0.44487303 0.17632677 1.0697241
0.51845688 0.1870607 1.0691398
0.46859744 0.18806463 1.0627242
0.49116632 0.19260758 1.0604116
0.51037425 0.19432087 1.0657299
0.51777279 0.20221078 1.0656594
0.27196234 0.17299551 1.0944905
0.28116828 0.1723603 1.1002424
0.50470972 0.15227042 1.0860248
0.51200604 0.15376881 1.0796814
-0.2217101 0.17636453 1.0914453
-0.21058184 0.17873619 1.089644
-0.19584705 0.18084551 1.0965685
-0.0007042439 0.18110824 1.0991843
0.012566171 0.1815109 1.0906525
0.030028079 0.18163922 1.0872087
0.046633031 0.18055183 1.0925438
0.11566544 0.18008116 1.0983695
0.12956388 0.17987718 1.0955648
0.15038271 0.17864737 1.096899
0.17084315 0.17871492 1.090186
0.19024608 0.17822868 1.0909241
0.20967311 0.17699571 1.0893704
0.23014444 0.17500958 1.089855
0.25034815 0.17322363 1.0907037
0.27171999 0.17312717 1.0932115
0.28844228 0.17449616 1.0894861
0.30884397 0.17570387 1.0908355
0.32293931 0.17588905 1.0987262
0.3525427 0.17849481 1.0896938
0.36356497 0.17863894 1.0898476
0.38466626 0.17535073 1.0986176
0.50919282 0.17295334 1.0835849
-0.20029694 0.18079305 1.086025
-0.18847623 0.18243858 1.0881104
-0.16996595 0.18449722 1.0907142
-0.15166105 0.18516448 1.089941
-0.13661146 0.18504699 1.0880873
-0.10151627 0.18442251 1.0969838
-0.08947853 0.18432869 1.092025
-0.067732885 0.1849706 1.0904136
-0.050704017 0.18481039 1.0915297
-0.029208226 0.18449534 1.0897919
-0.010750722 0.18329361 1.0896485
0.0049366863 0.18260244 1.08683
0.05306505 0.1810542 1.0876621
0.070442736 0.18103829 1.0897204
0.090517722 0.18115138 1.0914576
0.11021218 0.18150061 1.0888771
0.13001494 0.18079233 1.0885769
0.15012637 0.1798576 1.0876603
0.1632224 0.17920214 1.0878464
0.31908435 0.17681789 1.0857272
0.33237454 0.17747626 1.089415
0.34263065 0.17791665 1.0870975
0.42976013 0.16345581 1.0833848
0.44676441 0.16709681 1.0773731
0.50254548 0.18935314 1.0860865
0.47738433 0.17500907 1.0787251
0.49947819 0.17586893 1.0788832
0.50810307 0.17736143 1.0849285
0.52519625 0.19792436 1.0992048
0.26598737 0.17194584 1.1011857
0.28455108 0.17232826 1.10316
0.45242876 0.14910248 1.1160097
0.46836072 0.15298516 1.1057802
0.47468084 0.15738209 1.1026051
0.48852524 0.16009335 1.0942818
0.4993872 0.16584107 1.0891408
-0.2233438 0.17452899 1.1093878
-0.20976603 0.17740756 1.1091053
-0.19629632 0.18015718 1.1102413
-0.0053873006 0.17922518 1.11324
0.0097339973 0.17874375 1.1092553
0.029290512 0.17823301 1.1087433
0.049670499 0.17804882 1.1112012
0.07000532 0.17838249 1.1125442
0.090819255 0.17840025 1.1132053
0.11093682 0.17838819 1.1100783
0.12979408 0.17811078 1.1084907
0.15003887 0.17684096 1.1104819
0.16917819 0.17676981 1.1083051
0.19041483 0.17608127 1.1103767
0.21026121 0.17490506 1.1099566
0.23075533 0.1727297 1.1107725
0.25107807 0.17103226 1.1090186
0.26607889 0.17136401 1.1067444
0.29014793 0.17223571 1.1074214
0.30933052 0.17323247 1.1109147
0.32470709 0.17492147 1.1134614
0.35290152 0.17861414 1.1093714
0.36303711 0.17940682 1.1151792
0.38646206 0.17481181 1.1123042
0.47850856 0.1706662 1.1136168
0.49127865 0.17757843 1.1035335
0.49973965 0.17924291 1.0948632
-0.18600041 0.1819361 1.1094774
-0.17089535 0.18377556 1.1090043
-0.1496724 0.18464519 1.1090221
-0.13567123 0.1844207 1.1086807
-0.10160168 0.18396592 1.1119672
-0.089700796 0.18399204 1.110976
-0.069967374 0.18392016 1.1088607
-0.048054665 0.18328111 1.1104293
-0.029545128 0.18205006 1.1088209
-0.013485292 0.18071944 1.1076697
0.058834188 0.17966232 1.099943
0.070772745 0.17938951 1.1040574
0.0901803 0.17969778 1.103032
0.10562015 0.17980693 1.1015383
0.33373943 0.1762031 1.1099572
0.34391353 0.177296 1.1094501
0.43696788 0.15037523 1.1012875
0.46173 0.14946039 1.103928
0.47033647 0.1572047 1.102451
0.50108367 0.19140804 1.1077161
0.50735384 0.19764975 1.1025482
0.47414136 0.16710904 1.0924426
0.50101668 0.17497449 1.0989169
0.52506179 0.18752831 1.1076443
0.52326059 0.20201986 1.1111945
0.44690919 0.15508147 1.1189291
0.458047 0.16365327 1.1179273
-0.22506905 0.17263138 1.1309876
-0.20973678 0.1762902 1.1310388
-0.19472101 0.17969127 1.1301001
-0.027913271 0.17937908 1.1319886
-0.010735422 0.17701942 1.1300111
0.0093394686 0.1753487 1.1296079
0.029813025 0.17515156 1.1295257
0.05051351 0.17602807 1.1302198
0.07014104 0.17673683 1.1296406
0.08946567 0.17652972 1.128967
0.10891768 0.17622398 1.1275644
0.13109462 0.17487752 1.1311945
0.14968127 0.17439827 1.1306543
0.17046838 0.17453489 1.1273307
0.187848 0.17471781 1.1263376
0.20987342 0.17381603 1.1321555
0.23042595 0.1716973 1.1284019
0.25039351 0.1699716 1.1263208
0.26365507 0.16942595 1.1282954
0.29878879 0.17146231 1.1212399
0.31013691 0.17209879 1.1296303
0.3274622 0.17404111 1.1305102
0.35213849 0.17781055 1.1310215
0.36665979 0.17925262 1.1282748
0.44987968 0.16907309 1.128559
0.46594626 0.17460582 1.1263003
0.48136494 0.17755841 1.1220802
0.49047056 0.18613087 1.1142802
-0.18435003 0.18164437 1.1297374
-0.17007792 0.18287118 1.1327782
-0.1493763 0.18385671 1.1266896
-0.13466811 0.18371773 1.1316932
-0.10863269 0.18549165 1.1309817
-0.091635808 0.18430349 1.1316755
-0.071107201 0.18433884 1.1269748
-0.04986025 0.18284753 1.1299652
-0.034720074 0.18039791 1.12453
0.33722344 0.1756698 1.1254338
0.34298685 0.17636696 1.1278348
0.37800208 0.17846148 1.1329229
0.38194302 0.1782904 1.1369522
0.46182075 0.14882681 1.1320527
0.47749296 0.17282404 1.1365535
0.48465744 0.18742676 1.1374202
0.50086391 0.19618672 1.1256653
0.5137977 0.20432824 1.1234487
0.50717241 0.18792944 1.1290823
0.51938164 0.19725488 1.1346387
0.52461559 0.20575979 1.1275399
0.44204518 0.14619188 1.1264615
0.44409129 0.16308896 1.1305807
-0.22674143 0.17137837 1.1509787
-0.20945635 0.17598785 1.1526132
-0.19341846 0.17957257 1.1493114
-0.1080512 0.18194309 1.1540585
-0.095263489 0.18248078 1.1496619
-0.044857066 0.17965464 1.1503595
-0.029685896 0.17797947 1.1508492
-0.0094246538 0.17474303 1.1508785
0.0098371822 0.17240818 1.1511031
0.02868419 0.17209238 1.1502184
0.049960479 0.1729207 1.1499695
0.069759563 0.17402653 1.152378
0.089871027 0.17455101 1.1501642
0.10994043 0.17413402 1.1472284
0.13033144 0.17257911 1.1506441
0.1499317 0.17211103 1.1532667
0.1685141 0.17266291 1.1501312
0.1903021 0.17349665 1.1463072
0.21163082 0.17314149 1.1501418
0.23114359 0.171946 1.1503338
0.24942593 0.17002764 1.1494138
0.26560596 0.16910961 1.1493839
0.31632242 0.17181875 1.1465651
0.32970974 0.17401709 1.1491746
0.34860209 0.17671336 1.1509829
0.37837243 0.17810252 1.1499794
0.44691357 0.17626838 1.145054
-0.18407787 0.18118902 1.150301
-0.17027566 0.18247609 1.1523844
-0.15051274 0.18321264 1.1455752
-0.12697044 0.18370612 1.1507092
-0.1162359 0.18357995 1.1471207
-0.08930213 0.18248704 1.1501
-0.07025332 0.18189988 1.1480386
-0.054414533 0.18096477 1.1488129
0.38830623 0.17746495 1.1508998
0.45011708 0.17285919 1.1592857
0.48393959 0.17906186 1.1465958
0.49025574 0.18788156 1.1518537
0.50375414 0.1993065 1.1474426
0.49999723 0.19207609 1.157285
0.5178138 0.19832368 1.1442791
0.44032094 0.16278861 1.1526808
-0.0017038621 0.1659037 1.1825517
0.0093247481 0.16478154 1.1798062
0.44590884 0.16812064 1.1442986
-0.22946841 0.16999026 1.1692455
-0.20923911 0.17574951 1.1682237
-0.19383113 0.17964691 1.1693456
-0.1252294 0.17932439 1.1709518
-0.11095689 0.17797618 1.1704032
-0.098193057 0.17758431 1.1671841
-0.048645604 0.17489974 1.168425
-0.029272638 0.17422508 1.1709652
-0.0087158252 0.17155291 1.17028
0.011238483 0.16855319 1.1679766
0.028909927 0.16691716 1.1697131
0.049824983 0.16757782 1.1691376
0.069657005 0.17001532 1.1698388
0.090039872 0.17135179 1.1696692
0.10982524 0.17169826 1.1677883
0.12885305 0.17157926 1.1682777
0.15074655 0.17051025 1.1702776
0.17100659 0.17125751 1.1697364
0.19106381 0.17204903 1.1682823
0.21067967 0.1729116 1.1713572
0.22955045 0.17287858 1.168893
0.2456471 0.17233254 1.1756722
0.26876709 0.17033994 1.1709996
0.31601143 0.17168275 1.1610129
0.33030212 0.17352256 1.1671176
0.34980685 0.17638198 1.16737
0.3634471 0.17795148 1.1626798
-0.1839121 0.18087885 1.1696519
-0.1709633 0.18225612 1.1734829
-0.14837256 0.18203853 1.1661593
-0.13464783 0.17985719 1.16848
-0.088710442 0.17662105 1.1694577
-0.070253178 0.17580612 1.1666855
-0.058178701 0.17575353 1.1653976
0.39380074 0.17755701 1.1729329
0.3998124 0.17308642 1.1658558
0.45858556 0.16765392 1.1750221
0.49582306 0.19470999 1.1661966
0.5004859 0.19723259 1.1774328
-0.077914648 0.14893489 1.2158866
-0.070686124 0.14775705 1.2161953
-0.080650844 0.15102804 1.2139685
-0.070277415 0.14952102 1.2141197
0.43658897 0.15673743 1.1755393
-0.0059848265 0.15982577 1.195773
0.011441015 0.15820493 1.192616
0.028152455 0.1552161 1.1937699
0.44240949 0.16663252 1.1763022
-0.23011008 0.16958629 1.1887522
-0.21018825 0.17585856 1.1902667
-0.19411296 0.18096167 1.191237
-0.12950382 0.17542621 1.1897407
-0.11015468 0.17155939 1.1894165
-0.097708195 0.16926393 1.1890569
-0.066528417 0.16529377 1.1907043
-0.050621539 0.1671727 1.1868672
-0.030333839 0.16582395 1.1896344
-0.012763058 0.16519366 1.1878765
0.032025762 0.1600858 1.1852927
0.050250482 0.15855336 1.1884155
0.070974395 0.16333134 1.1878346
0.089286812 0.16614594 1.1896517
0.11081367 0.16897243 1.1903933
0.12921046 0.16924629 1.1882874
0.15001111 0.16935197 1.1871051
0.16923413 0.16927762 1.1890386
0.18980668 0.17092422 1.1894077
0.21056384 0.17238471 1.1890084
0.23013888 0.17310394 1.1886865
0.24971902 0.17344064 1.1895714
0.27204627 0.17199194 1.1869836
0.33406693 0.17331821 1.1853918
0.35098532 0.17530595 1.1904322
0.36537954 0.17775108 1.1956688
-0.18484728 0.18146822 1.1917436
-0.17060502 0.18090717 1.1958643
-0.14872964 0.17905551 1.1879516
-0.13852106 0.17729658 1.1883147
-0.089384265 0.16933745 1.1862917
-0.074037239 0.16886735 1.184194
0.3807711 0.18169208 1.1909853
0.46546975 0.17137767 1.2018627
-0.096369334 0.14704077 1.2226696
-0.088043645 0.14762661 1.2194118
-0.098682307 0.1493734 1.2225983
-0.08427313 0.14872719 1.2174605
-0.063736878 0.1439556 1.2184623
-0.053217687 0.14027871 1.2200208
0.018165262 0.13417625 1.2192382
0.030149085 0.13415307 1.2206671
0.049162176 0.13649485 1.2203599
0.062501155 0.13763776 1.2246768
-0.064561367 0.14774519 1.214359
-0.053680278 0.14690493 1.2136693
-0.029513344 0.15166973 1.209076
-0.0095459595 0.14984439 1.2079914
0.011060399 0.14484866 1.2093765
0.031451512 0.14581548 1.2067652
0.051092137 0.14611016 1.2073433
0.068997033 0.14572208 1.2121716
0.0852497 0.15106374 1.21427
0.1228821 0.15865272 1.2187232
0.46226418 0.17340185 1.2155583
-0.24274333 0.16587764 1.2123429
-0.22836313 0.17021793 1.2111926
-0.21286947 0.17721575 1.21654
-0.1953637 0.18147554 1.210826
-0.14301905 0.17287043 1.2137781
-0.1286712 0.16909058 1.2105607
-0.11054889 0.16285612 1.2085451
-0.093588904 0.15964141 1.2051214
-0.074299939 0.15645063 1.2048115
-0.052852895 0.15539415 1.2048887
-0.032356523 0.15676853 1.2028975
0.054207496 0.15366182 1.1997437
0.071792826 0.15524977 1.2031817
0.092668951 0.15859674 1.2075331
0.10962336 0.16259566 1.2097967
0.12942666 0.16621667 1.2102802
0.14891927 0.16651523 1.2105824
0.16881338 0.16727628 1.2101575
0.18728621 0.1690952 1.2114667
0.2105272 0.17149316 1.2142156
0.23029211 0.1732804 1.2117336
0.25030506 0.17421561 1.2117515
0.26714399 0.17370968 1.2070013
0.28226858 0.1741 1.2144676
0.33933085 0.17387299 1.2039744
0.34893352 0.17488463 1.2073333
0.3636874 0.17758583 1.2135097
0.46129096 0.17487867 1.2065207
-0.18515159 0.18151101 1.2106805
-0.17154321 0.18004704 1.215265
-0.15327033 0.17693235 1.2083499
-0.087699704 0.16293764 1.1978128
-0.079551324 0.16260545 1.1959642
0.46709189 0.17326239 1.2039093
-0.11453149 0.15200959 1.2352315
-0.11462343 0.14983401 1.2392293
-0.10768052 0.14802715 1.2328362
-0.088834897 0.14301932 1.2253391
0.070506461 0.13315648 1.2349335
0.081019901 0.13578875 1.237628
-0.10466234 0.14377601 1.2362478
-0.089836851 0.13920927 1.2308328
-0.077398837 0.14235727 1.2221253
-0.045410786 0.14191385 1.218354
-0.032275394 0.1396922 1.219394
-0.012151686 0.14050154 1.2179743
0.0042129345 0.13924405 1.2163887
0.07740026 0.14383781 1.2190118
0.0917821 0.14288636 1.2243581
0.11412074 0.15397601 1.2262808
0.12865128 0.15677427 1.2317896
0.46205086 0.17102848 1.2205614
-0.24341694 0.16455251 1.2271816
-0.23044738 0.169964 1.2322499
-0.21014169 0.18012993 1.2357079
-0.19715852 0.18186612 1.2312303
-0.14620608 0.17137411 1.230598
-0.13130872 0.16424064 1.2299973
-0.11402019 0.1545109 1.227703
-0.096485332 0.14939214 1.2219436
-0.076104268 0.14831541 1.2154377
-0.061636649 0.14909545 1.2125185
0.10574826 0.15336263 1.2219026
0.1357695 0.16004233 1.2246439
0.14996774 0.16275448 1.2312071
0.16955438 0.16520566 1.2304562
0.18403986 0.166587 1.2319095
0.25359094 0.17418067 1.2273341
0.27214977 0.17472872 1.2330108
0.28579766 0.17556472 1.2299813
0.35303321 0.17626637 1.2292198
0.36513293 0.17805269 1.233009
-0.18732712 0.18061189 1.2307973
-0.17171228 0.17871553 1.2320844
-0.15577298 0.17436154 1.2283226
0.37306863 0.17898351 1.2255147
0.3807857 0.17873435 1.2370402
-0.12168037 0.14978901 1.2534406
-0.12228651 0.149031 1.2554175
-0.11374114 0.14355636 1.247087
-0.10012578 0.13490467 1.2407236
0.10195481 0.13651331 1.240708
0.1136794 0.14626367 1.2423515
0.13100967 0.15209033 1.2480052
0.14548168 0.15534939 1.2492898
0.17195961 0.16159247 1.2486571
0.1856309 0.15721957 1.2555122
-0.2455958 0.16337983 1.2493695
-0.23234487 0.17017126 1.2513417
-0.21035561 0.18073305 1.2487806
-0.14920335 0.16833651 1.25063
-0.13172455 0.15886676 1.2480822
-0.11516455 0.14796253 1.2417797
-0.10286375 0.13952598 1.2385553
0.15562384 0.15867634 1.2480024
0.16687427 0.16331737 1.246686
0.1883277 0.16632085 1.2481446
0.20649949 0.16920586 1.2526076
0.23497668 0.17309085 1.2503031
0.25052208 0.17445327 1.2479888
0.27050066 0.17535236 1.2449882
0.35969195 0.1774379 1.2549495
0.36695516 0.17846091 1.24932
-0.18780512 0.18183926 1.2519523
-0.16904993 0.17734046 1.2506461
-0.1580898 0.17328084 1.2454609
0.37491223 0.17948774 1.2460082
0.38112107 0.17836352 1.2569478
-0.12861513 0.15171909 1.2683067
-0.12791927 0.14961205 1.2720255
-0.2552864 0.15897016 1.2701651
-0.12752679 0.14935517 1.2692175
-0.12248515 0.14780283 1.2583119
0.10687011 0.13041781 1.2598424
0.11683868 0.13878502 1.2637376
0.13307402 0.1469534 1.2654949
0.15473349 0.15041237 1.2684166
0.16648582 0.15269476 1.2671486
0.19442269 0.15699489 1.2632076
-0.24661852 0.16330631 1.2711396
-0.23390512 0.17154928 1.2675412
-0.20669612 0.18261096 1.2694762
-0.14978084 0.16571823 1.2697366
-0.13637491 0.1571345 1.2681658
0.19520248 0.16670075 1.2627949
0.21685459 0.17080332 1.2616148
0.23092894 0.17232426 1.2689338
0.24652277 0.17323628 1.2762275
0.26557931 0.17507182 1.2699151
0.37024158 0.18075907 1.2699285
0.47518897 0.17687313 1.2647574
-0.19001476 0.18297635 1.2727973
-0.17252335 0.17719612 1.269019
-0.16029352 0.17254481 1.2633717
0.37812108 0.17822859 1.2670534
0.49108705 0.18924892 1.2746993
0.48873362 0.18876608 1.262727
-0.13908155 0.14906606 1.2975709
-0.13360715 0.15050441 1.2854034
0.1055968 0.12736061 1.2952592
-0.25766888 0.15855265 1.2913063
-0.13836357 0.14934732 1.2955747
-0.13574992 0.14969754 1.2884461
0.11895506 0.13420828 1.2838024
0.13482957 0.14160901 1.2879466
0.15508756 0.14252061 1.2864147
0.17134821 0.14342336 1.2874689
-0.24706991 0.16462681 1.2923756
-0.23290639 0.17447479 1.2882615
-0.21078616 0.18208197 1.2933035
-0.16289824 0.17275204 1.2864798
-0.15020871 0.16348872 1.28996
-0.13916504 0.15571727 1.2819601
0.20748167 0.1672522 1.2894946
0.23758511 0.17040309 1.2922632
0.24939258 0.17209214 1.2886628
0.26380914 0.17323919 1.2920271
0.37241897 0.18317446 1.2981987
-0.19407067 0.1824801 1.292711
-0.16811848 0.17587866 1.2914139
0.27855116 0.17546158 1.2876599
0.28376362 0.17569216 1.2906293
0.38408607 0.17881924 1.2883106
0.44150659 0.15620074 1.322647
-0.14582226 0.14809898 1.3139991
0.10382707 0.12987708 1.306821
-0.26479748 0.15633422 1.3116267
-0.25775588 0.16013767 1.3098698
-0.14627714 0.15021272 1.3108525
-0.14198607 0.14900663 1.3019065
0.12269771 0.1320689 1.3042513
0.14077386 0.1311577 1.3065563
0.15835598 0.13976695 1.3055749
0.17307612 0.13412943 1.305449
0.25075945 0.16986865 1.3129895
0.26346299 0.17123625 1.3152428
-0.24660863 0.1659928 1.3120649
-0.22347562 0.17742282 1.313252
-0.21735488 0.17835733 1.3130466
-0.16395235 0.17005597 1.3072557
-0.15398774 0.16247296 1.3074632
0.21615668 0.16642085 1.3075302
0.23408441 0.16764981 1.3108891
0.24475782 0.16871066 1.3071883
0.26879659 0.17239611 1.3094819
0.37785432 0.183568 1.3063333
0.48077789 0.18309994 1.3090073
-0.18874802 0.18208739 1.307603
-0.17386259 0.1769096 1.3037703
0.22043535 0.16614464 1.3094141
0.22568014 0.16627441 1.3128872
0.2772857 0.17423275 1.3100332
0.28211799 0.17300254 1.3164266
0.30145857 0.17653035 1.3145872
0.38812155 0.18254407 1.3140525
0.11943744 0.12540503 1.3163457
0.44104239 0.14626473 1.3647738
0.11626821 0.13558131 1.3255349
0.43769175 0.16375579 1.3630003
0.43635428 0.15154721 1.364103
-0.26388326 0.15870538 1.3309067
-0.25947258 0.15936555 1.3287793
-0.1539551 0.14880364 1.3274632
0.13501951 0.148517 1.3235784
0.14180335 0.12906249 1.3272104
0.15963554 0.13277219 1.3222244
0.17703371 0.12865062 1.3251543
0.25221238 0.16659093 1.3342792
0.26909822 0.16639897 1.3336736
-0.25063926 0.16353311 1.3312231
-0.23560947 0.17048185 1.3287194
-0.16749652 0.16612969 1.3296654
-0.15849899 0.15897 1.3252238
0.21966669 0.15478757 1.3251528
0.22835182 0.16437978 1.3276439
0.24315597 0.16372435 1.3316112
0.27644566 0.16984978 1.3275168
0.28157115 0.17024095 1.3307594
-0.20584995 0.17684519 1.3287858
-0.18844788 0.17504583 1.3293923
-0.17792816 0.17193733 1.3289402
0.29211748 0.17260817 1.3261112
0.30473039 0.1730044 1.3341495
0.37982279 0.17973787 1.3357753
0.39508781 0.17590407 1.3300574
0.41028926 0.16407993 1.3354039
0.45790473 0.15717784 1.3255159
0.44245866 0.14523384 1.3771968
-0.20303898 0.17222522 1.350318
-0.19398762 0.16903041 1.3560858
0.13575733 0.14270799 1.3401693
0.43178028 0.16472082 1.374333
0.44285744 0.14950427 1.3757782
-0.26278928 0.15919912 1.3473521
-0.16553928 0.14683212 1.3571892
-0.16153574 0.14780407 1.3426899
0.13870212 0.15115529 1.3422836
0.12938806 0.1490816 1.3525631
0.16064444 0.12660369 1.3382834
0.18186828 0.12099546 1.3451146
0.25318059 0.15976159 1.3510877
0.26884601 0.16403851 1.3511132
0.28350449 0.16380465 1.3525945
-0.25062481 0.1624212 1.3495463
-0.23100884 0.16682065 1.3577873
-0.16978005 0.15852854 1.3498837
0.23324697 0.1563483 1.3455528
0.2442352 0.1587438 1.3475927
0.28931481 0.16658701 1.349203
0.34529778 0.17107418 1.3551239
-0.22795941 0.16763331 1.3577714
-0.20707712 0.17195119 1.3489721
-0.18830384 0.16719788 1.3528231
-0.1779329 0.16489165 1.3469385
0.29597303 0.1688683 1.3432302
0.30699363 0.16607317 1.3524688
0.37835988 0.18005456 1.3416576
0.39122981 0.17523077 1.3468573
0.41523877 0.15952806 1.3553987
0.46096256 0.159741 1.3453518
0.47920549 0.17067747 1.3477929
-0.20204234 0.16793892 1.3678368
-0.18948142 0.16390909 1.3685974
0.13943093 0.14554492 1.3586069
0.31586716 0.15119423 1.3837276
0.32115299 0.15064198 1.3848631
0.42882156 0.16420117 1.3907771
0.43939474 0.16557407 1.3845155
0.44088307 0.16091278 1.3897839
-0.26342255 0.15846497 1.3674819
-0.20680141 0.16700412 1.373778
-0.196648 0.16403617 1.3775967
-0.1705481 0.14375527 1.3709828
0.13654928 0.1501509 1.3670367
0.16119501 0.12105986 1.3560778
0.18079986 0.12185032 1.3604751
0.25457677 0.15534574 1.3699369
0.26910204 0.15787213 1.3693559
0.29013291 0.15860172 1.3702422
0.35090971 0.16314426 1.3732501
0.48345968 0.16986111 1.3749154
-0.25266558 0.16298227 1.3696257
-0.17657591 0.15490009 1.3683209
0.23844634 0.15189846 1.363924
0.2497462 0.15311725 1.3717245
0.29735562 0.16004632 1.3630763
0.30827677 0.16081403 1.3658352
0.33294842 0.16058496 1.3671954
0.35086632 0.16378927 1.3696724
0.36235583 0.16778481 1.3739632
-0.22666113 0.16643266 1.3690554
-0.21604319 0.16765682 1.3701138
-0.1915624 0.16487485 1.3649794
0.30137518 0.16313015 1.3560076
0.41649166 0.15941703 1.3603556
0.48594758 0.16907646 1.3680912
0.42977327 0.11453965 1.4217144
-0.21776587 0.16794661 1.3913603
-0.20673367 0.1659146 1.389627
-0.18904591 0.15820196 1.3881918
0.14657916 0.14392547 1.3728865
0.140111 0.1463749 1.3845888
0.31268677 0.14839199 1.3914402
0.32958704 0.14424181 1.3956679
0.3533228 0.15018898 1.4051335
0.36656827 0.15403885 1.4053378
0.4268173 0.159437 1.4071925
0.43049648 0.15760364 1.4127519
0.44491944 0.16219468 1.3910114
-0.26621667 0.16424701 1.3937159
-0.20218779 0.16443707 1.3871154
-0.19002548 0.15730581 1.3938233
-0.17690368 0.14630507 1.3903259
0.13578579 0.14731257 1.3865908
0.16117734 0.11678396 1.379541
0.19529107 0.11923344 1.3797414
0.25603801 0.14969914 1.387934
0.27201763 0.15290003 1.3899477
0.29153523 0.15181221 1.3882687
0.30999526 0.14863706 1.3902723
0.32825246 0.14681935 1.3913811
0.35186031 0.15343586 1.390746
0.36493635 0.15608856 1.3975145
0.44376177 0.16447105 1.3990883
0.48141593 0.1759627 1.3881531
-0.26177216 0.16584916 1.3938962
-0.24870728 0.16579141 1.3881198
-0.18544926 0.15432094 1.3899962
-0.17929561 0.1521779 1.3809394
0.24776039 0.14903681 1.381345
0.31226686 0.15352601 1.379068
0.33143434 0.15316512 1.3806996
0.34480101 0.1562417 1.3805515
0.36928937 0.16187479 1.3858348
-0.22856401 0.1665386 1.3872998
-0.20755444 0.16492404 1.3854907
-0.19261293 0.16056804 1.384174
0.39546636 0.1643126 1.3795993
0.41662571 0.16148515 1.3791215
0.43362433 0.15895143 1.3812237
0.47019514 0.16431092 1.3778596
0.42553762 0.11857039 1.4275277
0.17447962 0.12249306 1.4040202
0.18430066 0.11409834 1.4011582
0.19059344 0.11388024 1.4053626
0.20308334 0.11441389 1.4010099
0.42823768 0.12380454 1.4367524
0.43136215 0.12624861 1.4316069
-0.20692019 0.16423562 1.4106426
0.1372267 0.14271769 1.406413
0.20072868 0.11753618 1.4138149
0.20798902 0.12117715 1.4142054
0.30990893 0.14094311 1.409045
0.33308113 0.140195 1.4088156
0.34919304 0.14429916 1.4115876
0.37090775 0.1473121 1.4184258
0.38390815 0.14610475 1.4208657
0.4290615 0.15298857 1.4216635
0.43100396 0.15294313 1.4237953
0.45049965 0.16435629 1.4045371
0.45845076 0.15579134 1.4063352
-0.20471084 0.16252157 1.409466
-0.18948156 0.15125042 1.4046646
-0.1814775 0.13978559 1.3989189
0.13632958 0.14105061 1.4048781
0.14727753 0.12682611 1.4086159
0.19838516 0.11589981 1.4049675
0.20844682 0.12031479 1.4124963
0.25517792 0.14585422 1.4064186
0.26786622 0.1488371 1.4055942
0.29211497 0.1460162 1.4088497
0.30194381 0.14413768 1.4065534
0.33454466 0.14235513 1.4000293
0.34820527 0.14504619 1.4046358
0.37390235 0.15362681 1.4022801
0.3805441 0.15374172 1.4068837
0.47934356 0.17320621 1.4024738
-0.19287772 0.15401323 1.4065417
0.24791665 0.14386651 1.4029006
0.37754607 0.15576395 1.398026
0.38549453 0.15438935 1.4044123
-0.22995414 0.17083453 1.4069716
-0.21423639 0.1663478 1.408301
-0.20040859 0.16038781 1.4080044
0.38790837 0.1574295 1.4006115
0.42053318 0.16054913 1.4020565
0.43827489 0.15985698 1.4007704
0.47760776 0.16844501 1.4053742
0.49068639 0.17156112 1.4037403
0.417649 0.11280882 1.4481075
0.17136247 0.13164784 1.4284019
0.17973261 0.12743071 1.4238465
0.18852064 0.11660264 1.417598
0.20175663 0.12090524 1.4263592
0.21447645 0.12797031 1.4271079
0.42152283 0.12031316 1.4501849
0.42374456 0.12273506 1.4544731
0.18334754 0.12546651 1.4292495
0.19108453 0.11676704 1.4316036
0.20627081 0.12131381 1.4281192
0.22043052 0.12666136 1.4365786
0.35528043 0.13305041 1.4363723
0.36817199 0.13087125 1.4358695
-0.21429649 0.16826899 1.4225485
-0.20258103 0.1489182 1.4317997
0.13366902 0.13507175 1.4288596
0.14657289 0.13289791 1.4302773
0.17347711 0.11665935 1.4286394
0.19138245 0.11472125 1.4248027
0.21609017 0.12433878 1.422105
0.22522295 0.12645274 1.4319921
0.30901411 0.13757913 1.4286464
0.32671434 0.13325642 1.4318345
