# .PCD v0.7 - Point Cloud Data file format
VERSION 0.7
FIELDS x y z
SIZE 4 4 4
TYPE F F F
COUNT 1 1 1
WIDTH 1464
HEIGHT 1
VIEWPOINT 0 0 0 1 0 0 0
POINTS 1464
DATA ascii
0.051346995 -0.1902502 1.4820001
0.054985575 -0.1907637 1.4860001
0.05872171 -0.19153395 1.4920001
0.062235832 -0.19153395 1.4920001
0.065882161 -0.19191907 1.4950001
0.069589049 -0.19243257 1.4990001
0.073412329 -0.19320281 1.5050001
0.18509622 -0.23620807 1.84
0.18891524 -0.2355662 1.835
0.19165765 -0.2336406 1.8200001
0.19540599 -0.23299873 1.8150001
0.19968088 -0.23299873 1.8150001
0.20339391 -0.23235686 1.8100001
0.20765702 -0.23235686 1.8100001
0.21028097 -0.23055963 1.7960001
0.21618325 -0.23235686 1.8100001
0.21995918 -0.23184337 1.8060001
0.2253302 -0.23299873 1.8150001
0.23150267 -0.23492433 1.83
0.23774576 -0.23684995 1.845
-0.87166929 -0.21171133 1.6800001
-0.87236083 -0.2128455 1.6890001
-0.87249583 -0.21385364 1.697
-0.87310493 -0.21498781 1.7060001
-0.8690868 -0.21498781 1.7060001
-0.86709684 -0.21549189 1.71
-0.86761183 -0.21662606 1.7190001
0.0024857114 -0.18726371 1.4860001
0.00596959 -0.18675965 1.4820001
0.0094856927 -0.18726371 1.4860001
0.012985683 -0.18726371 1.4860001
0.016518956 -0.18764177 1.4890001
0.019985665 -0.18726371 1.4860001
0.023485655 -0.18726371 1.4860001
0.026985645 -0.18726371 1.4860001
0.030485637 -0.18726371 1.4860001
0.033985626 -0.18726371 1.4860001
0.037384715 -0.18675965 1.4820001
0.040875286 -0.18675965 1.4820001
0.044365853 -0.18675965 1.4820001
0.047856424 -0.18675965 1.4820001
0.051485579 -0.18726371 1.4860001
0.055096582 -0.18764177 1.4890001
0.058839783 -0.18839788 1.4950001
0.06252782 -0.18890196 1.4990001
0.066190638 -0.18928002 1.5020001
0.069867589 -0.18965808 1.5050001
0.073900118 -0.19091825 1.5150001
0.18891524 -0.23124422 1.835
0.19165765 -0.22935393 1.8200001
0.19540599 -0.22872384 1.8150001
0.19913079 -0.22809376 1.8100001
0.20339391 -0.22809376 1.8100001
0.20719811 -0.22758968 1.8060001
0.20969556 -0.22569941 1.7910001
0.2157055 -0.22758968 1.8060001
0.21995918 -0.22758968 1.8060001
0.23645717 -0.23124422 1.835
-0.87426353 -0.20837271 1.6850001
-0.87236083 -0.20886737 1.6890001
-0.87249583 -0.20985667 1.697
-0.87515199 -0.2114643 1.71
-0.87112451 -0.2114643 1.71
-0.86912519 -0.21195896 1.7140001
-0.86963069 -0.21307193 1.723
-0.8675819 -0.21356659 1.7270001
0.0024957478 -0.1845057 1.4920001
0.0059977868 -0.18413471 1.4890001
0.0095048426 -0.18413471 1.4890001
0.013011899 -0.18413471 1.4890001
0.016518956 -0.18413471 1.4890001
0.019985665 -0.18376371 1.4860001
0.023485655 -0.18376371 1.4860001
0.026913006 -0.18326907 1.4820001
0.030485637 -0.18376371 1.4860001
0.033985626 -0.18376371 1.4860001
0.037485618 -0.18376371 1.4860001
0.040875286 -0.18326907 1.4820001
0.044365853 -0.18326907 1.4820001
0.047856424 -0.18326907 1.4820001
0.051589523 -0.18413471 1.4890001
0.055318598 -0.1848767 1.4950001
0.059115283 -0.18574233 1.5020001
0.06265296 -0.18574233 1.5020001
0.066499114 -0.18660797 1.5090001
0.070192553 -0.18697897 1.5120001
0.074241564 -0.1882156 1.5220001
0.18840048 -0.22630389 1.83
0.19165765 -0.22506726 1.8200001
0.19540599 -0.22444895 1.8150001
0.19913079 -0.22383063 1.8100001
0.20339391 -0.22383063 1.8100001
0.20719811 -0.22333598 1.8060001
0.20969556 -0.22148104 1.7910001
0.2157055 -0.22333598 1.8060001
0.21935022 -0.22271767 1.8010001
0.23581287 -0.22630389 1.83
-0.87426353 -0.20440403 1.6850001
-0.87236083 -0.20488927 1.6890001
-0.87249583 -0.20585972 1.697
-0.87310493 -0.2069515 1.7060001
-0.87112451 -0.20743673 1.71
-0.87166059 -0.2085285 1.7190001
-0.86963069 -0.20901373 1.723
-0.87009376 -0.21010551 1.7320001
0.0025007662 -0.18135551 1.4950001
0.0059977868 -0.18062766 1.4890001
0.0095048426 -0.18062766 1.4890001
0.013011899 -0.18062766 1.4890001
0.016518956 -0.18062766 1.4890001
0.019985665 -0.18026373 1.4860001
0.023422439 -0.1797785 1.4820001
0.026913006 -0.1797785 1.4820001
0.030485637 -0.18026373 1.4860001
0.033985626 -0.18026373 1.4860001
0.037485618 -0.18026373 1.4860001
0.040875286 -0.1797785 1.4820001
0.044485599 -0.18026373 1.4860001
0.047985587 -0.18026373 1.4860001
0.051693466 -0.18099158 1.4920001
0.055318598 -0.18135551 1.4950001
0.05923336 -0.18256858 1.5050001
0.062944949 -0.18305381 1.5090001
0.066631325 -0.18341774 1.5120001
0.070517518 -0.1842669 1.5190001
0.074436679 -0.18511604 1.526
0.18509622 -0.22320676 1.84
0.18788573 -0.22138715 1.825
0.19113111 -0.22017406 1.8150001
0.19540599 -0.22017406 1.8150001
0.19913079 -0.21956752 1.8100001
0.20294443 -0.2190823 1.8060001
0.20662448 -0.21847576 1.8010001
0.21028097 -0.21786922 1.7960001
0.21510831 -0.21847576 1.8010001
0.21935022 -0.21847576 1.8010001
-0.87426353 -0.20043533 1.6850001
-0.87442678 -0.20138696 1.6930001
-0.87249583 -0.20186275 1.697
-0.87515199 -0.20340915 1.71
-0.87316227 -0.20388496 1.7140001
-0.87166059 -0.20447972 1.7190001
-0.86963069 -0.20495553 1.723
-0.87009376 -0.20602611 1.7320001
0.002507457 -0.17831013 1.4990001
0.0060098707 -0.17747746 1.4920001
0.0095239934 -0.17747746 1.4920001
0.013064331 -0.17783432 1.4950001
0.016552238 -0.17747746 1.4920001
0.019985665 -0.17676374 1.4860001
0.023485655 -0.17676374 1.4860001
0.026913006 -0.17628793 1.4820001
0.030403579 -0.17628793 1.4820001
0.033894148 -0.17628793 1.4820001
0.037384715 -0.17628793 1.4820001
0.040875286 -0.17628793 1.4820001
0.044365853 -0.17628793 1.4820001
0.047985587 -0.17676374 1.4860001
0.051693466 -0.17747746 1.4920001
0.055577613 -0.17866699 1.5020001
0.059390787 -0.17949966 1.5090001
0.063070089 -0.17985651 1.5120001
0.066939801 -0.18068919 1.5190001
0.070656791 -0.18104604 1.5220001
0.074583016 -0.1818787 1.529
0.18509622 -0.21887299 1.84
0.18788573 -0.21708871 1.825
0.19113111 -0.21589918 1.8150001
0.19540599 -0.21589918 1.8150001
0.19913079 -0.21530442 1.8100001
0.20294443 -0.21482861 1.8060001
0.20719811 -0.21482861 1.8060001
0.21028097 -0.2136391 1.7960001
0.21510831 -0.21423385 1.8010001
0.21935022 -0.21423385 1.8010001
0.23452428 -0.21649395 1.8200001
-0.87426353 -0.19646662 1.6850001
-0.87442678 -0.19739941 1.6930001
-0.87249583 -0.19786578 1.697
-0.87515199 -0.19938156 1.71
-0.87316227 -0.19984795 1.7140001
-0.87166059 -0.20043094 1.7190001
-0.87164962 -0.20136373 1.7270001
-0.87210315 -0.2024131 1.7360001
-0.0010272482 -0.1754791 1.5050001
0.002507457 -0.1747795 1.4990001
0.0060219551 -0.17431313 1.4950001
0.0095431432 -0.17431313 1.4950001
0.013064331 -0.17431313 1.4950001
0.016552238 -0.17396334 1.4920001
0.020026013 -0.17361353 1.4890001
0.023422439 -0.17279735 1.4820001
0.026913006 -0.17279735 1.4820001
0.030403579 -0.17279735 1.4820001
0.033894148 -0.17279735 1.4820001
0.037384715 -0.17279735 1.4820001
0.040875286 -0.17279735 1.4820001
0.044485599 -0.17326374 1.4860001
0.048082463 -0.17361353 1.4890001
0.051797409 -0.17431313 1.4950001
0.055577613 -0.17512931 1.5020001
0.059390787 -0.17594548 1.5090001
0.063070089 -0.17629528 1.5120001
0.066939801 -0.17711146 1.5190001
0.070656791 -0.17746125 1.5220001
0.074729353 -0.17862722 1.5320001
0.18459325 -0.21395624 1.835
0.18788573 -0.21279027 1.825
0.19113111 -0.21162428 1.8150001
0.19540599 -0.21162428 1.8150001
0.19913079 -0.2110413 1.8100001
0.20294443 -0.21057491 1.8060001
0.20719811 -0.21057491 1.8060001
0.20969556 -0.20882596 1.7910001
0.21451111 -0.20940894 1.7960001
0.21874125 -0.20940894 1.7960001
-0.87166929 -0.19192672 1.6800001
-0.87236083 -0.19295491 1.6890001
-0.87249583 -0.19386883 1.697
-0.87310493 -0.19489703 1.7060001
-0.87316227 -0.19581096 1.7140001
-0.87166059 -0.19638216 1.7190001
-0.86963069 -0.19683912 1.723
-0.87210315 -0.19832428 1.7360001
-0.87051445 -0.19889548 1.7410001
-0.8708927 -0.19992368 1.7500001
-0.0010299784 -0.17239133 1.5090001
0.0025124755 -0.17159164 1.5020001
0.0060380669 -0.1712489 1.4990001
0.0095686764 -0.1712489 1.4990001
0.013064331 -0.17079194 1.4950001
0.016552238 -0.17044921 1.4920001
0.020026013 -0.17010649 1.4890001
0.023422439 -0.1693068 1.4820001
0.026858527 -0.16896406 1.4790001
0.030342031 -0.16896406 1.4790001
0.033825535 -0.16896406 1.4790001
0.037384715 -0.1693068 1.4820001
0.040792543 -0.16896406 1.4790001
0.044365853 -0.1693068 1.4820001
0.047985587 -0.16976376 1.4860001
0.051693466 -0.17044921 1.4920001
0.055577613 -0.17159164 1.5020001
0.059390787 -0.17239133 1.5090001
0.063070089 -0.17273405 1.5120001
0.066939801 -0.17353374 1.5190001
0.070656791 -0.17387648 1.5220001
0.074583016 -0.17467616 1.529
0.18409027 -0.20906304 1.83
0.18737097 -0.20792061 1.8200001
0.19113111 -0.2073494 1.8150001
0.19540599 -0.2073494 1.8150001
0.19913079 -0.2067782 1.8100001
0.20294443 -0.20632122 1.8060001
0.20662448 -0.20575002 1.8010001
0.21028097 -0.20517881 1.7960001
0.21510831 -0.20575002 1.8010001
0.21874125 -0.20517881 1.7960001
0.22359213 -0.20575002 1.8010001
0.22846657 -0.20632122 1.8060001
-0.86959392 -0.18752226 1.6760001
-0.87029481 -0.18852924 1.6850001
-0.87043929 -0.18942434 1.6930001
-0.87054598 -0.19031943 1.7010001
-0.8690868 -0.19087887 1.7060001
-0.86912519 -0.19177397 1.7140001
-0.86963069 -0.19278094 1.723
-0.87009376 -0.19378792 1.7320001
-0.8680144 -0.19423546 1.7360001
-0.86840445 -0.19524245 1.7450001
-0.0010299784 -0.16883716 1.5090001
0.0025174937 -0.16838962 1.5050001
0.0060501513 -0.16805395 1.5020001
0.0095686764 -0.16771829 1.4990001
0.013064331 -0.16727075 1.4950001
0.016552238 -0.1669351 1.4920001
0.020026013 -0.16659944 1.4890001
0.023422439 -0.16581623 1.4820001
0.026858527 -0.16548057 1.4790001
0.030342031 -0.16548057 1.4790001
0.033825535 -0.16548057 1.4790001
0.037309036 -0.16548057 1.4790001
0.040875286 -0.16581623 1.4820001
0.044365853 -0.16581623 1.4820001
0.047985587 -0.16626377 1.4860001
0.051693466 -0.1669351 1.4920001
0.055466603 -0.16771829 1.4990001
0.05923336 -0.16838962 1.5050001
0.063070089 -0.16917282 1.5120001
0.066763528 -0.16950849 1.5150001
0.070517518 -0.16995603 1.5190001
0.074436679 -0.17073923 1.526
0.18358728 -0.20419338 1.825
0.18737097 -0.20363395 1.8200001
0.19060458 -0.20251508 1.8100001
0.19486769 -0.20251508 1.8100001
0.19913079 -0.20251508 1.8100001
0.20294443 -0.20206754 1.8060001
0.20662448 -0.2015081 1.8010001
0.21028097 -0.20094869 1.7960001
0.21451111 -0.20094869 1.7960001
0.21874125 -0.20094869 1.7960001
0.22359213 -0.2015081 1.8010001
0.22846657 -0.20206754 1.8060001
-0.86751848 -0.18313663 1.6720001
-0.86771232 -0.18401287 1.6800001
-0.86632615 -0.18456054 1.6850001
-0.86645168 -0.18543679 1.6930001
-0.86653966 -0.18631303 1.7010001
-0.86709684 -0.18729882 1.71
-0.86508822 -0.18773694 1.7140001
-0.86557245 -0.18872273 1.723
-0.86601442 -0.18970852 1.7320001
-0.86392558 -0.19014664 1.7360001
-0.86429447 -0.19113243 1.7450001
-0.0046145199 -0.1663783 1.5190001
-0.001032026 -0.16561159 1.5120001
0.0025241845 -0.16528299 1.5090001
0.0060622357 -0.16484487 1.5050001
0.0095878271 -0.16451629 1.5020001
0.013099286 -0.16418768 1.4990001
0.016585521 -0.16374956 1.4950001
0.020026013 -0.16309236 1.4890001
0.023422439 -0.16232565 1.4820001
0.026858527 -0.16199705 1.4790001
0.030342031 -0.16199705 1.4790001
0.033894148 -0.16232565 1.4820001
0.037384715 -0.16232565 1.4820001
0.040875286 -0.16232565 1.4820001
0.044365853 -0.16232565 1.4820001
0.047985587 -0.16276377 1.4860001
0.051693466 -0.16342096 1.4920001
0.055318598 -0.16374956 1.4950001
0.05923336 -0.16484487 1.5050001
0.062944949 -0.16528299 1.5090001
0.066631325 -0.16561159 1.5120001
0.070331827 -0.1659402 1.5150001
0.074095227 -0.1663783 1.5190001
0.18358728 -0.19989493 1.825
0.18685621 -0.19879963 1.8150001
0.19060458 -0.19825196 1.8100001
0.19486769 -0.19825196 1.8100001
0.19913079 -0.19825196 1.8100001
0.20294443 -0.19781385 1.8060001
0.20662448 -0.19726619 1.8010001
0.21086639 -0.19726619 1.8010001
0.21510831 -0.19726619 1.8010001
0.21874125 -0.19671853 1.7960001
0.22359213 -0.19726619 1.8010001
0.22846657 -0.19781385 1.8060001
-0.86336768 -0.17834114 1.664
-0.86358035 -0.17919855 1.6720001
-0.86169893 -0.17962725 1.6760001
-0.86235738 -0.18059184 1.6850001
-0.86246419 -0.18144925 1.6930001
-0.86253321 -0.18230666 1.7010001
-0.86306936 -0.18327124 1.71
-0.863563 -0.18423584 1.7190001
-0.86151427 -0.18466453 1.723
-0.8594467 -0.18509324 1.7270001
-0.85983676 -0.18605782 1.7360001
-0.85821265 -0.18659371 1.7410001
-0.0082299877 -0.16355082 1.526
-0.0046145199 -0.1628006 1.5190001
-0.0010340738 -0.1623719 1.5150001
0.0025241845 -0.16172883 1.5090001
0.0060783476 -0.16172883 1.5090001
0.009606977 -0.16130014 1.5050001
0.013125503 -0.1609786 1.5020001
0.016585521 -0.16022837 1.4950001
0.020026013 -0.15958531 1.4890001
0.023485655 -0.15926379 1.4860001
0.026858527 -0.15851356 1.4790001
0.030342031 -0.15851356 1.4790001
0.033825535 -0.15851356 1.4790001
0.037309036 -0.15851356 1.4790001
0.040792543 -0.15851356 1.4790001
0.044365853 -0.15883508 1.4820001
0.047985587 -0.15926379 1.4860001
0.051693466 -0.15990685 1.4920001
0.055318598 -0.16022837 1.4950001
0.059115283 -0.1609786 1.5020001
0.062944949 -0.16172883 1.5090001
0.066631325 -0.16205037 1.5120001
0.070192553 -0.16205037 1.5120001
0.074095227 -0.1628006 1.5190001
0.18308431 -0.19506063 1.8200001
0.18685621 -0.19452474 1.8150001
0.19113111 -0.19452474 1.8150001
0.19486769 -0.19398886 1.8100001
0.19913079 -0.19398886 1.8100001
0.20294443 -0.19356017 1.8060001
0.20662448 -0.19302428 1.8010001
0.21086639 -0.19302428 1.8010001
0.21510831 -0.19302428 1.8010001
0.21935022 -0.19302428 1.8010001
0.22359213 -0.19302428 1.8010001
0.22846657 -0.19356017 1.8060001
-0.85921693 -0.17358334 1.6560001
-0.85944837 -0.17442191 1.664
-0.85964233 -0.17526047 1.6720001
-0.85775137 -0.17567976 1.6760001
-0.85838878 -0.17662315 1.6850001
-0.85847664 -0.17746171 1.6930001
-0.85852689 -0.17830029 1.7010001
-0.85904169 -0.17924367 1.71
-0.85701424 -0.17966296 1.7140001
-0.85546547 -0.18018706 1.7190001
-0.85339785 -0.18060634 1.723
-0.85377616 -0.18154973 1.7320001
-0.0082299877 -0.15995663 1.526
-0.0046236338 -0.15953735 1.5220001
-0.0010340738 -0.15880361 1.5150001
0.002529203 -0.15848914 1.5120001
0.0060904319 -0.15848914 1.5120001
0.009606977 -0.1577554 1.5050001
0.013125503 -0.15744093 1.5020001
0.016629895 -0.15712647 1.4990001
0.020066362 -0.15639272 1.4920001
0.023485655 -0.15576379 1.4860001
0.026913006 -0.15534452 1.4820001
0.030403579 -0.15534452 1.4820001
0.033894148 -0.15534452 1.4820001
0.037384715 -0.15534452 1.4820001
0.040875286 -0.15534452 1.4820001
0.044365853 -0.15534452 1.4820001
0.047985587 -0.15576379 1.4860001
0.051693466 -0.15639272 1.4920001
0.055318598 -0.1567072 1.4950001
0.059115283 -0.15744093 1.5020001
0.062944949 -0.15817468 1.5090001
0.066499114 -0.15817468 1.5090001
0.070192553 -0.15848914 1.5120001
0.073900118 -0.15880361 1.5150001
0.18258134 -0.19024986 1.8150001
0.18634146 -0.18972576 1.8100001
0.19018336 -0.18930648 1.8060001
0.19443704 -0.18930648 1.8060001
0.19869073 -0.18930648 1.8060001
0.20294443 -0.18930648 1.8060001
0.20662448 -0.18878238 1.8010001
0.21086639 -0.18878238 1.8010001
0.21510831 -0.18878238 1.8010001
0.21935022 -0.18878238 1.8010001
0.22359213 -0.18878238 1.8010001
0.22783405 -0.18878238 1.8010001
-0.85506606 -0.16886322 1.6480001
-0.85531646 -0.16968295 1.6560001
-0.85552919 -0.17050266 1.664
-0.85365707 -0.17091253 1.6680001
-0.85380393 -0.17173226 1.6760001
-0.85442001 -0.17265444 1.6850001
-0.85448915 -0.17347416 1.6930001
-0.85452044 -0.17429389 1.7010001
-0.85301417 -0.17480622 1.7060001
-0.84899598 -0.17480622 1.7060001
-0.84695899 -0.17521608 1.71
-0.84490323 -0.17562595 1.7140001
-0.0082461676 -0.15666981 1.529
-0.0046357848 -0.15636241 1.526
-0.0010388517 -0.15595256 1.5220001
0.0025342212 -0.15523531 1.5150001
0.0060904319 -0.15492791 1.5120001
0.0096325101 -0.15462051 1.5090001
0.013151718 -0.15421066 1.5050001
0.016663179 -0.15390325 1.5020001
0.020106709 -0.15318599 1.4950001
0.023580484 -0.1528786 1.4920001
0.027040126 -0.1525712 1.4890001
0.030485637 -0.15226381 1.4860001
0.033985626 -0.15226381 1.4860001
0.037561294 -0.1525712 1.4890001
0.04098561 -0.15226381 1.4860001
0.044575408 -0.1525712 1.4890001
0.048082463 -0.1525712 1.4890001
0.051693466 -0.1528786 1.4920001
0.055466603 -0.15359585 1.4990001
0.05923336 -0.15421066 1.5050001
0.062944949 -0.15462051 1.5090001
0.066499114 -0.15462051 1.5090001
0.070053279 -0.15462051 1.5090001
0.073753782 -0.15492791 1.5120001
0.17693107 -0.18454045 1.8010001
0.181173 -0.18454045 1.8010001
0.18541491 -0.18454045 1.8010001
0.18913029 -0.18402812 1.7960001
0.19389874 -0.18454045 1.8010001
0.19814065 -0.18454045 1.8010001
0.20238256 -0.18454045 1.8010001
0.20605084 -0.18402812 1.7960001
0.21028097 -0.18402812 1.7960001
0.21451111 -0.18402812 1.7960001
0.21874125 -0.18402812 1.7960001
0.22297138 -0.18402812 1.7960001
0.22720152 -0.18402812 1.7960001
0.23143166 -0.18402812 1.7960001
-0.85299063 -0.16458122 1.6440001
-0.85325044 -0.16538212 1.6520001
-0.85141611 -0.16578256 1.6560001
-0.84956282 -0.16618299 1.6600001
-0.8476907 -0.16658343 1.664
-0.84782803 -0.16738431 1.6720001
-0.85045135 -0.16868575 1.6850001
-0.84849215 -0.1690862 1.6890001
-0.84651405 -0.16948663 1.6930001
-0.84451705 -0.16988707 1.697
-0.84250134 -0.17028752 1.7010001
-0.83849496 -0.17028752 1.7010001
-0.0082623474 -0.15336889 1.5320001
-0.0046448987 -0.15306856 1.529
-0.0010388517 -0.15236779 1.5220001
0.002540912 -0.15206745 1.5190001
0.0061025163 -0.15166701 1.5150001
0.0096325101 -0.15106635 1.5090001
0.013151718 -0.15066591 1.5050001
0.016663179 -0.15036558 1.5020001
0.020160506 -0.15006524 1.4990001
0.023627898 -0.1496648 1.4950001
0.027094606 -0.14936447 1.4920001
0.03060873 -0.14936447 1.4920001
0.034122851 -0.14936447 1.4920001
0.037636973 -0.14936447 1.4920001
0.041151099 -0.14936447 1.4920001
0.044575408 -0.14906414 1.4890001
0.048276216 -0.1496648 1.4950001
0.051935993 -0.15006524 1.4990001
0.055577613 -0.15036558 1.5020001
0.05923336 -0.15066591 1.5050001
0.062944949 -0.15106635 1.5090001
0.066499114 -0.15106635 1.5090001
0.070192553 -0.15136668 1.5120001
0.073900118 -0.15166701 1.5150001
0.18294407 -0.17789589 1.7770001
0.18712947 -0.17789589 1.7770001
0.19131485 -0.17789589 1.7770001
0.19605032 -0.17839645 1.7820001
0.20024748 -0.17839645 1.7820001
0.20444465 -0.17839645 1.7820001
0.2086418 -0.17839645 1.7820001
0.21283898 -0.17839645 1.7820001
0.21703613 -0.17839645 1.7820001
0.22061254 -0.17789589 1.7770001
0.22479793 -0.17789589 1.7770001
0.22898333 -0.17789589 1.7770001
-0.84883982 -0.15992706 1.636
-0.84911847 -0.1607091 1.6440001
-0.84935951 -0.16149114 1.6520001
-0.84546852 -0.16149114 1.6520001
-0.84361535 -0.16188218 1.6560001
-0.84377146 -0.1626642 1.664
-0.8418712 -0.16305523 1.6680001
-0.84196138 -0.16383727 1.6760001
-0.84001398 -0.16422828 1.6800001
-0.83605701 -0.16422828 1.6800001
-0.83457655 -0.16471705 1.6850001
-0.83257967 -0.16510808 1.6890001
-0.0082839197 -0.15015157 1.536
-0.0046448987 -0.14946729 1.529
-0.0010415819 -0.14917402 1.526
0.0025459304 -0.148783 1.5220001
0.0061186282 -0.14848974 1.5190001
0.00965166 -0.14780545 1.5120001
0.013186673 -0.14751218 1.5090001
0.016663179 -0.14682791 1.5020001
0.020160506 -0.14653464 1.4990001
0.023691116 -0.14653464 1.4990001
0.027149087 -0.14614363 1.4950001
0.030670276 -0.14614363 1.4950001
0.034191463 -0.14614363 1.4950001
0.037813552 -0.14653464 1.4990001
0.041233841 -0.14614363 1.4950001
0.04475503 -0.14614363 1.4950001
0.048405383 -0.14653464 1.4990001
0.051935993 -0.14653464 1.4990001
0.055577613 -0.14682791 1.5020001
0.05923336 -0.14712118 1.5050001
0.062944949 -0.14751218 1.5090001
0.066499114 -0.14751218 1.5090001
0.070192553 -0.14780545 1.5120001
0.073900118 -0.14809872 1.5150001
0.16887535 -0.16804072 1.7190001
0.17372891 -0.16882277 1.7270001
0.17872308 -0.16970256 1.7360001
0.1828119 -0.16970256 1.7360001
0.18786968 -0.17058235 1.7450001
0.19252978 -0.17107113 1.7500001
0.19710106 -0.17146215 1.7540001
0.20077337 -0.17107113 1.7500001
0.20536348 -0.17146215 1.7540001
0.20949471 -0.17146215 1.7540001
0.21313874 -0.17107113 1.7500001
0.21726054 -0.17107113 1.7500001
0.22138233 -0.17107113 1.7500001
-0.84676445 -0.15569218 1.6320001
-0.8449865 -0.15607376 1.636
-0.84524637 -0.15683697 1.6440001
-0.84137422 -0.15683697 1.6440001
-0.83953989 -0.15721858 1.6480001
-0.8376866 -0.15760016 1.6520001
-0.8358146 -0.15798177 1.6560001
-0.83593297 -0.15874496 1.664
-0.83201379 -0.15874496 1.664
-0.82809454 -0.15874496 1.664
-0.8261565 -0.15912656 1.6680001
-0.82419962 -0.15950815 1.6720001
-0.011979162 -0.1474878 1.5460001
-0.0083000995 -0.14682001 1.539
-0.0046540122 -0.14615221 1.5320001
-0.0010436295 -0.14586601 1.529
0.0025526213 -0.14557981 1.526
0.0061186282 -0.14491202 1.5190001
0.0096708108 -0.14453042 1.5150001
0.013186673 -0.14395802 1.5090001
0.016696461 -0.14357643 1.5050001
0.020200854 -0.14329022 1.5020001
0.02373853 -0.14329022 1.5020001
0.027221724 -0.14300403 1.4990001
0.030813882 -0.14329022 1.5020001
0.034351557 -0.14329022 1.5020001
0.037889231 -0.14329022 1.5020001
0.041426908 -0.14329022 1.5020001
0.044874772 -0.14300403 1.4990001
0.048502259 -0.14329022 1.5020001
0.052039936 -0.14329022 1.5020001
0.05568862 -0.14357643 1.5050001
0.059390787 -0.14395802 1.5090001
0.062944949 -0.14395802 1.5090001
0.066499114 -0.14395802 1.5090001
0.070192553 -0.14424422 1.5120001
0.073900118 -0.14453042 1.5150001
0.16553518 -0.16074835 1.6850001
0.17030865 -0.16151156 1.6930001
0.17470798 -0.16189314 1.697
0.17965272 -0.16275175 1.7060001
0.18453217 -0.16351494 1.7140001
0.18911925 -0.16399194 1.7190001
0.19361752 -0.16437353 1.723
0.19721681 -0.16399194 1.7190001
0.2017339 -0.16437353 1.723
0.20531437 -0.16399194 1.7190001
0.20936315 -0.16399194 1.7190001
0.21341191 -0.16399194 1.7190001
0.21746071 -0.16399194 1.7190001
-0.84261364 -0.15110396 1.6240001
-0.84292054 -0.15184832 1.6320001
-0.8411333 -0.15222049 1.636
-0.83727992 -0.15222049 1.636
-0.83546448 -0.15259267 1.6400001
-0.83362997 -0.15296485 1.6440001
-0.8317768 -0.15333702 1.6480001
-0.82990462 -0.1537092 1.6520001
-0.82601374 -0.1537092 1.6520001
-0.82212269 -0.1537092 1.6520001
-0.015660886 -0.14421868 1.5500001
-0.011979162 -0.14384651 1.5460001
-0.0083216727 -0.14356737 1.5430001
-0.0046661636 -0.14291605 1.536
-0.0010456772 -0.14254388 1.5320001
0.0025526213 -0.14198561 1.526
0.0061307126 -0.14161344 1.5220001
0.0096963439 -0.1413343 1.5190001
0.013212889 -0.140683 1.5120001
0.016740836 -0.14040387 1.5090001
0.020241203 -0.14003168 1.5050001
0.023785945 -0.14003168 1.5050001
0.027330685 -0.14003168 1.5050001
0.030875428 -0.14003168 1.5050001
0.034511652 -0.14040387 1.5090001
0.038065813 -0.14040387 1.5090001
0.041509654 -0.14003168 1.5050001
0.045054395 -0.14003168 1.5050001
0.048599135 -0.14003168 1.5050001
0.052143879 -0.14003168 1.5050001
0.055836629 -0.14040387 1.5090001
0.059390787 -0.14040387 1.5090001
0.062944949 -0.14040387 1.5090001
0.066631325 -0.140683 1.5120001
0.070331827 -0.14096212 1.5150001
0.074095227 -0.1413343 1.5190001
0.077826351 -0.14161344 1.5220001
0.14916153 -0.15222049 1.636
0.15413719 -0.15333702 1.6480001
0.16307917 -0.15445355 1.6600001
0.16779377 -0.1551979 1.6680001
0.17213421 -0.15557007 1.6720001
0.1760723 -0.15557007 1.6720001
0.18087167 -0.15631443 1.6800001
0.18537867 -0.15677966 1.6850001
0.19024636 -0.15752402 1.6930001
0.19423389 -0.15752402 1.6930001
0.19822143 -0.15752402 1.6930001
0.20220897 -0.15752402 1.6930001
0.2061965 -0.15752402 1.6930001
0.21018404 -0.15752402 1.6930001
0.21417159 -0.15752402 1.6930001
-0.84053826 -0.14691618 1.6200001
-0.83878857 -0.14727893 1.6240001
-0.83702016 -0.14764169 1.628
-0.83318567 -0.14764169 1.628
-0.83138901 -0.14800444 1.6320001
-0.82957339 -0.1483672 1.636
-0.82773906 -0.14872997 1.6400001
-0.82387632 -0.14872997 1.6400001
-0.82001364 -0.14872997 1.6400001
-0.8161509 -0.14872997 1.6400001
-0.012010155 -0.14056794 1.5500001
-0.0083216727 -0.13993312 1.5430001
-0.004675277 -0.13957037 1.539
-0.0010484074 -0.1392983 1.536
0.0025576395 -0.13866349 1.529
0.0061468245 -0.13839141 1.526
0.0096963439 -0.13775659 1.5190001
0.013239105 -0.13739383 1.5150001
0.016774118 -0.13712177 1.5120001
0.020295 -0.1368497 1.5090001
0.023849161 -0.1368497 1.5090001
0.027403323 -0.1368497 1.5090001
0.031019034 -0.13712177 1.5120001
0.034580261 -0.13712177 1.5120001
0.038141489 -0.13712177 1.5120001
0.041702721 -0.13712177 1.5120001
0.045174137 -0.1368497 1.5090001
0.048728298 -0.1368497 1.5090001
0.052282464 -0.1368497 1.5090001
0.055836629 -0.1368497 1.5090001
0.05950886 -0.13712177 1.5120001
0.063070089 -0.13712177 1.5120001
0.066631325 -0.13712177 1.5120001
0.070331827 -0.13739383 1.5150001
0.074095227 -0.13775659 1.5190001
0.078030884 -0.13839141 1.526
0.081625089 -0.13839141 1.526
0.085386828 -0.13866349 1.529
0.12536943 -0.14319794 1.5790001
0.12966073 -0.14383276 1.5860001
0.13406911 -0.14455827 1.5940001
0.13808288 -0.14483033 1.5970001
0.14291014 -0.14591861 1.6090001
0.14733805 -0.14655343 1.6160001
0.16072139 -0.1483672 1.636
0.16497707 -0.14872997 1.6400001
0.16925158 -0.14909272 1.6440001
0.17354494 -0.14945547 1.6480001
0.17785715 -0.14981823 1.6520001
0.18262824 -0.15054373 1.6600001
0.18698755 -0.15090649 1.664
0.19090678 -0.15090649 1.664
0.19482601 -0.15090649 1.664
0.19922301 -0.15126926 1.6680001
0.20266449 -0.15090649 1.664
0.20658372 -0.15090649 1.664
0.21050297 -0.15090649 1.664
0.2144222 -0.15090649 1.664
-0.83846283 -0.14274724 1.6160001
-0.83878857 -0.14345391 1.6240001
-0.83496362 -0.14345391 1.6240001
-0.83113855 -0.14345391 1.6240001
-0.82935125 -0.14380723 1.628
-0.82754511 -0.14416057 1.6320001
-0.82370126 -0.14416057 1.6320001
-0.81985736 -0.14416057 1.6320001
-0.81601357 -0.14416057 1.6320001
-0.81216967 -0.14416057 1.6320001
-0.80832577 -0.14416057 1.6320001
-0.0157013 -0.13727054 1.554
-0.012010155 -0.13691722 1.5500001
-0.0083378516 -0.13656388 1.5460001
-0.004675277 -0.13594554 1.539
-0.001050455 -0.13594554 1.539
0.0025626579 -0.13532721 1.5320001
0.0061589088 -0.1350622 1.529
0.0097154938 -0.13444386 1.5220001
0.01327406 -0.13417886 1.5190001
0.0168074 -0.13382554 1.5150001
0.020335346 -0.13356054 1.5120001
0.02394399 -0.13382554 1.5150001
0.027512284 -0.13382554 1.5150001
0.031080581 -0.13382554 1.5150001
0.034740355 -0.13417886 1.5190001
0.038318072 -0.13417886 1.5190001
0.041785464 -0.13382554 1.5150001
0.045353759 -0.13382554 1.5150001
0.048825175 -0.13356054 1.5120001
0.052386407 -0.13356054 1.5120001
0.055947635 -0.13356054 1.5120001
0.05950886 -0.13356054 1.5120001
0.063070089 -0.13356054 1.5120001
0.066763528 -0.13382554 1.5150001
0.070517518 -0.13417886 1.5190001
0.074241564 -0.13444386 1.5220001
0.078030884 -0.1347972 1.526
0.081625089 -0.1347972 1.526
0.085386828 -0.1350622 1.529
0.0891627 -0.13532721 1.5320001
0.092771031 -0.13532721 1.5320001
0.096631005 -0.13568054 1.536
0.10024877 -0.13568054 1.536
0.11131904 -0.13594554 1.539
0.11576542 -0.13691722 1.5500001
0.12026361 -0.13788888 1.5610001
0.12449604 -0.13850722 1.5680001
0.12876144 -0.13912556 1.575
0.13314392 -0.13983223 1.5830001
0.13713178 -0.14009723 1.5860001
0.14157784 -0.1408039 1.5940001
0.14633512 -0.14177556 1.605
0.15086363 -0.14248224 1.613
0.15466274 -0.14248224 1.613
0.15875658 -0.14274724 1.6160001
0.16296516 -0.14310057 1.6200001
0.16678075 -0.14310057 1.6200001
0.17143881 -0.14380723 1.628
0.17613454 -0.14451391 1.636
0.17998783 -0.14451391 1.636
0.18384112 -0.14451391 1.636
0.18815333 -0.14486724 1.6400001
0.19201604 -0.14486724 1.6400001
0.19587874 -0.14486724 1.6400001
0.19974145 -0.14486724 1.6400001
0.20310755 -0.14451391 1.636
0.20696084 -0.14451391 1.636
0.21081413 -0.14451391 1.636
-0.83846283 -0.13894106 1.6160001
-0.83672261 -0.13928498 1.6200001
-0.83496362 -0.13962889 1.6240001
-0.83113855 -0.13962889 1.6240001
-0.82935125 -0.13997279 1.628
-0.82551676 -0.13997279 1.628
-0.82168239 -0.13997279 1.628
-0.81784791 -0.13997279 1.628
-0.81401348 -0.13997279 1.628
-0.80818844 -0.13962889 1.6240001
-0.80436343 -0.13962889 1.6240001
-0.0157013 -0.1336104 1.554
-0.012010155 -0.13326648 1.5500001
-0.0083378516 -0.13292257 1.5460001
-0.0046874289 -0.13266464 1.5430001
-0.001050455 -0.13232072 1.539
0.0025693488 -0.13206278 1.536
0.0061709932 -0.13171887 1.5320001
0.0097410269 -0.131203 1.526
0.013300275 -0.13085909 1.5220001
0.016851775 -0.13060115 1.5190001
0.020429492 -0.13060115 1.5190001
0.024007209 -0.13060115 1.5190001
0.027639402 -0.13085909 1.5220001
0.031224187 -0.13085909 1.5220001
0.034808967 -0.13085909 1.5220001
0.038393747 -0.13085909 1.5220001
0.041895788 -0.13060115 1.5190001
0.045353759 -0.13025725 1.5150001
0.048922051 -0.13025725 1.5150001
0.05249035 -0.13025725 1.5150001
0.055947635 -0.12999931 1.5120001
0.05950886 -0.12999931 1.5120001
0.063070089 -0.12999931 1.5120001
0.066763528 -0.13025725 1.5150001
0.070656791 -0.13085909 1.5220001
0.074241564 -0.13085909 1.5220001
0.078030884 -0.131203 1.526
0.08178556 -0.13146093 1.529
0.085386828 -0.13146093 1.529
0.088988096 -0.13146093 1.529
0.092771031 -0.13171887 1.5320001
0.096379362 -0.13171887 1.5320001
0.099791907 -0.13146093 1.529
0.10339317 -0.13146093 1.529
0.10699444 -0.13146093 1.529
0.11081271 -0.13171887 1.5320001
0.11524261 -0.13266464 1.5430001
0.11941614 -0.13326648 1.5500001
0.12362266 -0.13386834 1.557
0.12786216 -0.13447019 1.5640001
0.13221872 -0.135158 1.572
0.13592127 -0.135158 1.572
0.14060083 -0.13610376 1.5830001
0.14460281 -0.1363617 1.5860001
0.14908658 -0.13704954 1.5940001
0.15245739 -0.13670562 1.59
0.1565953 -0.13704954 1.5940001
0.16034967 -0.13704954 1.5940001
0.16441289 -0.13730748 1.5970001
0.16859554 -0.13765138 1.6010001
0.17322768 -0.13833921 1.6090001
0.17701738 -0.13833921 1.6090001
0.18125656 -0.13868313 1.613
0.18539986 -0.13894106 1.6160001
0.18920603 -0.13894106 1.6160001
0.19301222 -0.13894106 1.6160001
0.1968184 -0.13894106 1.6160001
0.20062459 -0.13894106 1.6160001
0.20405126 -0.13868313 1.613
0.20733494 -0.13833921 1.6090001
-0.84053826 -0.13546938 1.6200001
-0.83878857 -0.13580386 1.6240001
-0.83702016 -0.13613835 1.628
-0.83318567 -0.13613835 1.628
-0.82935125 -0.13613835 1.628
-0.82551676 -0.13613835 1.628
-0.82168239 -0.13613835 1.628
-0.81784791 -0.13613835 1.628
-0.81401348 -0.13613835 1.628
-0.80818844 -0.13580386 1.6240001
-0.80436343 -0.13580386 1.6240001
-0.0157013 -0.12995024 1.554
-0.012041149 -0.12995024 1.554
-0.0083378516 -0.12928127 1.5460001
-0.0046874289 -0.12903041 1.5430001
-0.0010531853 -0.12903041 1.5430001
0.0025743672 -0.12869591 1.539
0.0061871051 -0.12844503 1.536
0.0097793275 -0.12811054 1.5320001
0.01333523 -0.12760881 1.526
0.016929433 -0.12760881 1.526
0.020469841 -0.12727432 1.5220001
0.02411784 -0.12760881 1.526
0.027712042 -0.12760881 1.526
0.031306248 -0.12760881 1.526
0.034808967 -0.12727432 1.5220001
0.038393747 -0.12727432 1.5220001
0.041978531 -0.12727432 1.5220001
0.045473501 -0.12702344 1.5190001
0.049051218 -0.12702344 1.5190001
0.05249035 -0.12668896 1.5150001
0.056058645 -0.12668896 1.5150001
0.059626937 -0.12668896 1.5150001
0.063195229 -0.12668896 1.5150001
0.066763528 -0.12668896 1.5150001
0.070656791 -0.12727432 1.5220001
0.074241564 -0.12727432 1.5220001
0.078184292 -0.12785967 1.529
0.08178556 -0.12785967 1.529
0.085386828 -0.12785967 1.529
0.088988096 -0.12785967 1.529
0.092589363 -0.12785967 1.529
0.096190631 -0.12785967 1.529
0.099596106 -0.12760881 1.526
0.10319031 -0.12760881 1.526
0.10678451 -0.12760881 1.526
0.11037872 -0.12760881 1.526
0.11471979 -0.12844503 1.536
0.11887684 -0.12903041 1.5430001
0.12274929 -0.12928127 1.5460001
0.12704462 -0.12995024 1.554
0.1309571 -0.13020112 1.557
0.13497017 -0.13053562 1.5610001
0.13962382 -0.13145547 1.572
0.14332636 -0.13145547 1.572
0.14730951 -0.13170633 1.575
0.15101911 -0.13170633 1.575
0.154434 -0.13145547 1.572
0.15843834 -0.13170633 1.575
0.16214795 -0.13170633 1.575
0.16585758 -0.13170633 1.575
0.16999784 -0.13204083 1.5790001
0.17415693 -0.13237531 1.5830001
0.17822252 -0.13262619 1.5860001
0.18195803 -0.13262619 1.5860001
0.18616188 -0.13296068 1.59
0.18990682 -0.13296068 1.59
0.19365177 -0.13296068 1.59
0.19739671 -0.13296068 1.59
0.20063564 -0.13262619 1.5860001
0.20771304 -0.13237531 1.5830001
-0.84261364 -0.13197884 1.6240001
-0.84085453 -0.13230391 1.628
-0.83907676 -0.13262898 1.6320001
-0.83523285 -0.13262898 1.6320001
-0.83138901 -0.13262898 1.6320001
-0.82754511 -0.13262898 1.6320001
-0.82168239 -0.13230391 1.628
-0.81784791 -0.13230391 1.628
-0.81401348 -0.13230391 1.628
-0.810179 -0.13230391 1.628
-0.019361451 -0.12629008 1.554
-0.0157013 -0.12629008 1.554
-0.012010155 -0.12596501 1.5500001
-0.0083378516 -0.12563996 1.5460001
-0.0046965424 -0.12563996 1.5460001
-0.0010552331 -0.12563996 1.5460001
0.0025860765 -0.12563996 1.5460001
0.0062153018 -0.12539615 1.5430001
0.0098048607 -0.12482727 1.536
0.013387662 -0.1245022 1.5320001
0.016995998 -0.1245022 1.5320001
0.020563984 -0.1242584 1.529
0.024165254 -0.1242584 1.529
0.027821003 -0.1245022 1.5320001
0.031367794 -0.1242584 1.529
0.034969062 -0.1242584 1.529
0.03849465 -0.12401459 1.526
0.041978531 -0.12368952 1.5220001
0.045473501 -0.12344572 1.5190001
0.048922051 -0.12312065 1.5150001
0.05249035 -0.12312065 1.5150001
0.056058645 -0.12312065 1.5150001
0.059626937 -0.12312065 1.5150001
0.063195229 -0.12312065 1.5150001
0.066939801 -0.12344572 1.5190001
0.070656791 -0.12368952 1.5220001
0.074241564 -0.12368952 1.5220001
0.078030884 -0.12401459 1.526
0.08178556 -0.1242584 1.529
0.085219286 -0.12401459 1.526
0.088813491 -0.12401459 1.526
0.092407696 -0.12401459 1.526
0.096001901 -0.12401459 1.526
0.099335045 -0.12368952 1.5220001
0.10271696 -0.12344572 1.5190001
0.10629467 -0.12344572 1.5190001
0.11008939 -0.12368952 1.5220001
0.11419698 -0.1242584 1.529
0.11802937 -0.1245022 1.5320001
0.1221935 -0.12507108 1.539
0.12614533 -0.12539615 1.5430001
0.1300319 -0.12563996 1.5460001
0.13401908 -0.12596501 1.5500001
0.13802508 -0.12629008 1.554
0.14195874 -0.1265339 1.557
0.1460001 -0.12685896 1.5610001
0.14929318 -0.1265339 1.557
0.15296039 -0.1265339 1.557
0.15662763 -0.1265339 1.557
0.16029483 -0.1265339 1.557
0.16438329 -0.12685896 1.5610001
0.16838291 -0.12710278 1.5640001
0.17206661 -0.12710278 1.5640001
0.17575033 -0.12710278 1.5640001
0.17989293 -0.12742785 1.5680001
0.18358606 -0.12742785 1.5680001
0.18775694 -0.12775292 1.572
0.19145948 -0.12775292 1.572
0.19466543 -0.12742785 1.5680001
0.19835857 -0.12742785 1.5680001
0.20153625 -0.12710278 1.5640001
-0.84261364 -0.12815382 1.6240001
-0.84085453 -0.12846947 1.628
-0.83907676 -0.12878512 1.6320001
-0.83523285 -0.12878512 1.6320001
-0.83138901 -0.12878512 1.6320001
-0.82754511 -0.12878512 1.6320001
-0.82370126 -0.12878512 1.6320001
-0.81985736 -0.12878512 1.6320001
-0.81601357 -0.12878512 1.6320001
-0.81216967 -0.12878512 1.6320001
-0.019311616 -0.1223143 1.5500001
-0.015660886 -0.1223143 1.5500001
-0.012010155 -0.1223143 1.5500001
-0.0083378516 -0.12199865 1.5460001
-0.0046965424 -0.12199865 1.5460001
-0.0010579632 -0.1223143 1.5500001
0.0025860765 -0.12199865 1.5460001
0.0062273862 -0.12199865 1.5460001
0.0098495455 -0.12176191 1.5430001
0.013448833 -0.12144625 1.539
0.017040374 -0.12120952 1.536
0.020604333 -0.12089387 1.5320001
0.024275886 -0.12120952 1.536
0.027821003 -0.12089387 1.5320001
0.031429339 -0.12089387 1.5320001
0.034969062 -0.12065713 1.529
0.03849465 -0.12042039 1.526
0.041895788 -0.11986801 1.5190001
0.045473501 -0.11986801 1.5190001
0.048922051 -0.11955236 1.5150001
0.05249035 -0.11955236 1.5150001
0.056058645 -0.11955236 1.5150001
0.059626937 -0.11955236 1.5150001
0.063195229 -0.11955236 1.5150001
0.066939801 -0.11986801 1.5190001
0.070656791 -0.12010475 1.5220001
0.074241564 -0.12010475 1.5220001
0.078030884 -0.12042039 1.526
0.081625089 -0.12042039 1.526
0.085219286 -0.12042039 1.526
0.088580698 -0.12010475 1.5220001
0.092165478 -0.12010475 1.5220001
0.095561527 -0.11986801 1.5190001
0.099139251 -0.11986801 1.5190001
0.10244647 -0.11955236 1.5150001
0.10601477 -0.11955236 1.5150001
0.10958307 -0.11955236 1.5150001
0.11345011 -0.11986801 1.5190001
0.11702782 -0.11986801 1.5190001
0.12084374 -0.12010475 1.5220001
0.12475552 -0.12042039 1.526
0.12860206 -0.12065713 1.529
0.13246273 -0.12089387 1.5320001
0.13669278 -0.12144625 1.539
0.14068231 -0.12176191 1.5430001
0.14431655 -0.12176191 1.5430001
0.14823845 -0.12199865 1.5460001
0.15187976 -0.12199865 1.5460001
0.15552108 -0.12199865 1.5460001
0.15957418 -0.1223143 1.5500001
0.16364613 -0.12262994 1.554
0.16730629 -0.12262994 1.554
0.17096643 -0.12262994 1.554
0.17462659 -0.12262994 1.554
0.17863093 -0.12286668 1.557
0.18229814 -0.12286668 1.557
0.18596536 -0.12286668 1.557
0.18963258 -0.12286668 1.557
0.19292735 -0.12262994 1.554
0.1965875 -0.12262994 1.554
0.19973221 -0.1223143 1.5500001
0.20338294 -0.1223143 1.5500001
0.2064994 -0.12199865 1.5460001
-0.84261364 -0.12432878 1.6240001
-0.84085453 -0.12463501 1.628
-0.83907676 -0.12494124 1.6320001
-0.83523285 -0.12494124 1.6320001
-0.83342671 -0.12524746 1.636
-0.82754511 -0.12494124 1.6320001
-0.82370126 -0.12494124 1.6320001
-0.81985736 -0.12494124 1.6320001
-0.81801355 -0.12524746 1.636
-0.019261781 -0.11835733 1.5460001
-0.015620471 -0.11835733 1.5460001
-0.011979162 -0.11835733 1.5460001
-0.0083378516 -0.11835733 1.5460001
-0.0046965424 -0.11835733 1.5460001
-0.0010579632 -0.11866356 1.5500001
0.0025927676 -0.11866356 1.5500001
0.0062273862 -0.11835733 1.5460001
0.0098495455 -0.11812766 1.5430001
0.013483788 -0.11812766 1.5430001
0.017073656 -0.11782143 1.539
0.02065813 -0.11759175 1.536
0.024275886 -0.11759175 1.536
0.02789364 -0.11759175 1.536
0.031429339 -0.11728553 1.5320001
0.034969062 -0.11705586 1.529
0.03849465 -0.11682618 1.526
0.041895788 -0.11629029 1.5190001
0.045473501 -0.11629029 1.5190001
0.048922051 -0.11598406 1.5150001
0.05249035 -0.11598406 1.5150001
0.056206651 -0.11629029 1.5190001
0.059784364 -0.11629029 1.5190001
0.063362084 -0.11629029 1.5190001
0.066939801 -0.11629029 1.5190001
0.070656791 -0.11651996 1.5220001
0.074436679 -0.11682618 1.526
0.078030884 -0.11682618 1.526
0.081625089 -0.11682618 1.526
0.084995911 -0.11651996 1.5220001
0.088580698 -0.11651996 1.5220001
0.09198381 -0.11629029 1.5190001
0.095309883 -0.11598406 1.5150001
0.098878182 -0.11598406 1.5150001
0.10224361 -0.11575439 1.5120001
0.1055949 -0.11552472 1.5090001
0.10914908 -0.11552472 1.5090001
0.11270323 -0.11552472 1.5090001
0.11625739 -0.11552472 1.5090001
0.12004976 -0.11575439 1.5120001
0.12361098 -0.11575439 1.5120001
0.12742454 -0.11598406 1.5150001
0.13133869 -0.11629029 1.5190001
0.13553813 -0.11682618 1.526
0.13940586 -0.11705586 1.529
0.14328772 -0.11728553 1.5320001
0.14727959 -0.11759175 1.536
0.15119207 -0.11782143 1.539
0.15521929 -0.11812766 1.5430001
0.15916239 -0.11835733 1.5460001
0.16280369 -0.11835733 1.5460001
0.166445 -0.11835733 1.5460001
0.17008631 -0.11835733 1.5460001
0.17372763 -0.11835733 1.5460001
0.17736894 -0.11835733 1.5460001
0.18101023 -0.11835733 1.5460001
0.18465155 -0.11835733 1.5460001
0.18829286 -0.11835733 1.5460001
0.19156171 -0.11812766 1.5430001
0.19519597 -0.11812766 1.5430001
0.1988302 -0.11812766 1.5430001
0.20193958 -0.11782143 1.539
0.20609869 -0.11812766 1.5430001
-0.84261364 -0.12050377 1.6240001
-0.84085453 -0.12080057 1.628
-0.83907676 -0.12109738 1.6320001
-0.83727992 -0.12139419 1.636
-0.83138901 -0.12109738 1.6320001
-0.82754511 -0.12109738 1.6320001
-0.82370126 -0.12109738 1.6320001
-0.82186681 -0.12139419 1.636
-0.82001364 -0.121691 1.6400001
-0.019224403 -0.11449342 1.5430001
-0.015590159 -0.11449342 1.5430001
-0.011955916 -0.11449342 1.5430001
-0.0083216727 -0.11449342 1.5430001
-0.0046965424 -0.11471602 1.5460001
-0.0010579632 -0.11501283 1.5500001
0.0025927676 -0.11501283 1.5500001
0.0062434985 -0.11501283 1.5500001
0.0098686954 -0.11471602 1.5460001
0.013510005 -0.11471602 1.5460001
0.017118031 -0.11449342 1.5430001
0.020698478 -0.11419661 1.539
0.0243233 -0.11419661 1.539
0.02789364 -0.113974 1.536
0.031429339 -0.1136772 1.5320001
0.034969062 -0.11345459 1.529
0.03849465 -0.11323198 1.526
0.041978531 -0.11293518 1.5220001
0.045473501 -0.11271257 1.5190001
0.049051218 -0.11271257 1.5190001
0.05249035 -0.11241577 1.5150001
0.056206651 -0.11271257 1.5190001
0.059784364 -0.11271257 1.5190001
0.063487224 -0.11293518 1.5220001
0.067072004 -0.11293518 1.5220001
0.070656791 -0.11293518 1.5220001
0.074436679 -0.11323198 1.526
0.078030884 -0.11323198 1.526
0.081411138 -0.11293518 1.5220001
0.084995911 -0.11293518 1.5220001
0.088406093 -0.11271257 1.5190001
0.091741592 -0.11241577 1.5150001
0.095121153 -0.11219316 1.5120001
0.098486587 -0.11197055 1.5090001
0.10177027 -0.11167375 1.5050001
0.10510507 -0.11145114 1.5020001
0.10842575 -0.11122854 1.4990001
0.11195636 -0.11122854 1.4990001
0.11548696 -0.11122854 1.4990001
0.11901759 -0.11122854 1.4990001
0.12279345 -0.11145114 1.5020001
0.12658346 -0.11167375 1.5050001
0.13047405 -0.11197055 1.5090001
0.13429467 -0.11219316 1.5120001
0.13812941 -0.11241577 1.5150001
0.14235243 -0.11293518 1.5220001
0.14632075 -0.11323198 1.526
0.15020967 -0.11345459 1.529
0.15411273 -0.1136772 1.5320001
0.15813287 -0.113974 1.536
0.16206655 -0.11419661 1.539
0.16612202 -0.11449342 1.5430001
0.16975626 -0.11449342 1.5430001
0.17339051 -0.11449342 1.5430001
0.17656583 -0.11419661 1.539
0.18019065 -0.11419661 1.539
0.18381548 -0.11419661 1.539
0.18744029 -0.11419661 1.539
0.19106512 -0.11419661 1.539
0.19468994 -0.11419661 1.539
0.19831476 -0.11419661 1.539
0.20154592 -0.113974 1.536
0.20516369 -0.113974 1.536
0.20918924 -0.11419661 1.539
0.43436924 -0.086222522 1.1620001
0.4371061 -0.086222522 1.1620001
-0.84261364 -0.11667874 1.6240001
-0.84085453 -0.11696613 1.628
-0.83907676 -0.11725352 1.6320001
-0.83523285 -0.11725352 1.6320001
-0.83138901 -0.11725352 1.6320001
-0.82754511 -0.11725352 1.6320001
-0.82370126 -0.11725352 1.6320001
-0.82186681 -0.1175409 1.636
-0.82001364 -0.11782829 1.6400001
-0.019224403 -0.11085918 1.5430001
-0.015590159 -0.11085918 1.5430001
-0.011955916 -0.11085918 1.5430001
-0.0083216727 -0.11085918 1.5430001
-0.0046874289 -0.11085918 1.5430001
-0.0010579632 -0.1113621 1.5500001
0.0025927676 -0.1113621 1.5500001
0.0062434985 -0.1113621 1.5500001
0.0098942285 -0.1113621 1.5500001
0.013510005 -0.11107472 1.5460001
0.017118031 -0.11085918 1.5430001
0.020752275 -0.11085918 1.5430001
0.0243233 -0.11057179 1.539
0.02789364 -0.11035625 1.536
0.031429339 -0.11006887 1.5320001
0.034969062 -0.10985333 1.529
0.03849465 -0.10963778 1.526
0.041978531 -0.1093504 1.5220001
0.045473501 -0.10913486 1.5190001
0.048922051 -0.10884748 1.5150001
0.052628934 -0.10913486 1.5190001
0.056206651 -0.10913486 1.5190001
0.059902437 -0.1093504 1.5220001
0.063487224 -0.1093504 1.5220001
0.067072004 -0.1093504 1.5220001
0.070656791 -0.1093504 1.5220001
0.074436679 -0.10963778 1.526
0.078030884 -0.10963778 1.526
0.081411138 -0.1093504 1.5220001
0.084995911 -0.1093504 1.5220001
0.0881733 -0.10884748 1.5150001
0.091559924 -0.10863194 1.5120001
0.094932415 -0.10841639 1.5090001
0.098029725 -0.10791347 1.5020001
0.10136453 -0.10769793 1.4990001
0.10461523 -0.10741055 1.4950001
0.10813643 -0.10741055 1.4950001
0.11143355 -0.107195 1.4920001
0.11494767 -0.107195 1.4920001
0.1184618 -0.107195 1.4920001
0.12222118 -0.10741055 1.4950001
0.12574236 -0.10741055 1.4950001
0.12960941 -0.10769793 1.4990001
0.13340648 -0.10791347 1.5020001
0.13758236 -0.10841639 1.5090001
0.14141713 -0.10863194 1.5120001
0.14526601 -0.10884748 1.5150001
0.14952198 -0.1093504 1.5220001
0.15350915 -0.10963778 1.526
0.1574122 -0.10985333 1.529
0.1613294 -0.11006887 1.5320001
0.16493773 -0.11006887 1.5320001
0.16898613 -0.11035625 1.536
0.17260389 -0.11035625 1.536
0.17622164 -0.11035625 1.536
0.1798394 -0.11035625 1.536
0.18345717 -0.11035625 1.536
0.18707491 -0.11035625 1.536
0.19069266 -0.11035625 1.536
0.19431043 -0.11035625 1.536
0.19792818 -0.11035625 1.536
0.20102108 -0.11006887 1.5320001
0.20516369 -0.11035625 1.536
0.20918924 -0.11057179 1.539
0.21239921 -0.11035625 1.536
0.43311819 -0.083773039 1.166
0.43399543 -0.083413802 1.161
0.43672994 -0.083413802 1.161
0.43795037 -0.083126426 1.1570001
0.43915191 -0.082839034 1.153
0.44186759 -0.082839034 1.153
0.4422698 -0.082407959 1.1470001
0.44419545 -0.082264267 1.1450001
0.44611165 -0.082120568 1.143
0.44912586 -0.081689492 1.1370001
-0.84261364 -0.11285371 1.6240001
-0.84085453 -0.11313167 1.628
-0.8411333 -0.1136876 1.636
-0.83523285 -0.11340965 1.6320001
-0.83138901 -0.11340965 1.6320001
-0.82754511 -0.11340965 1.6320001
-0.82572013 -0.1136876 1.636
-0.82186681 -0.1136876 1.636
-0.82201368 -0.11424354 1.6440001
-0.019224403 -0.10722493 1.5430001
-0.015590159 -0.10722493 1.5430001
-0.011955916 -0.10722493 1.5430001
-0.0083378516 -0.1074334 1.5460001
-0.0046965424 -0.1074334 1.5460001
-0.0010579632 -0.10771137 1.5500001
0.0025994584 -0.10798933 1.554
0.0062596104 -0.10798933 1.554
0.0098942285 -0.10771137 1.5500001
0.013544959 -0.10771137 1.5500001
0.017151315 -0.1074334 1.5460001
0.020752275 -0.10722493 1.5430001
0.0243233 -0.10694696 1.539
0.02789364 -0.10673849 1.536
0.031429339 -0.10646053 1.5320001
0.034969062 -0.10625204 1.529
0.038393747 -0.10576561 1.5220001
0.041895788 -0.10555714 1.5190001
0.045353759 -0.10527918 1.5150001
0.048922051 -0.10527918 1.5150001
0.052628934 -0.10555714 1.5190001
0.056206651 -0.10555714 1.5190001
0.059784364 -0.10555714 1.5190001
0.063487224 -0.10576561 1.5220001
0.067072004 -0.10576561 1.5220001
0.070656791 -0.10576561 1.5220001
0.074241564 -0.10576561 1.5220001
0.077826351 -0.10576561 1.5220001
0.081411138 -0.10576561 1.5220001
0.084828377 -0.10555714 1.5190001
0.0881733 -0.10527918 1.5150001
0.091559924 -0.1050707 1.5120001
0.094680779 -0.10458426 1.5050001
0.097833924 -0.10416731 1.4990001
0.10109405 -0.10388935 1.4950001
0.10440531 -0.10368088 1.4920001
0.10770243 -0.1034724 1.4890001
0.11098542 -0.10326393 1.4860001
0.11448541 -0.10326393 1.4860001
0.11798541 -0.10326393 1.4860001
0.12173066 -0.1034724 1.4890001
0.1252377 -0.1034724 1.4890001
0.12900417 -0.10368088 1.4920001
0.13278474 -0.10388935 1.4950001
0.13667062 -0.10416731 1.4990001
0.14076242 -0.10458426 1.5050001
0.14469069 -0.10486223 1.5090001
0.1488343 -0.10527918 1.5150001
0.15280499 -0.10555714 1.5190001
0.15669155 -0.10576561 1.5220001
0.16069756 -0.10604357 1.526
0.16461475 -0.10625204 1.529
0.168216 -0.10625204 1.529
0.17215441 -0.10646053 1.5320001
0.17541856 -0.10625204 1.529
0.17901982 -0.10625204 1.529
0.18262109 -0.10625204 1.529
0.18658774 -0.10646053 1.5320001
0.19019607 -0.10646053 1.5320001
0.1934249 -0.10625204 1.529
0.19741274 -0.10646053 1.5320001
0.20102108 -0.10646053 1.5320001
0.20516369 -0.10673849 1.536
0.20878145 -0.10673849 1.536
0.21239921 -0.10673849 1.536
0.43111014 -0.081165731 1.1680001
0.43237528 -0.080887757 1.164
0.43399543 -0.080679283 1.161
0.43672994 -0.080679283 1.161
0.43795037 -0.080401324 1.1570001
0.43915191 -0.08012335 1.153
0.44110113 -0.079984374 1.151
0.4422698 -0.079706408 1.1470001
0.44419545 -0.079567432 1.1450001
0.44611165 -0.079428442 1.143
0.44801846 -0.079289459 1.141
0.44912586 -0.0790115 1.1370001
0.45100912 -0.078872517 1.1350001
0.45168376 -0.078525059 1.13
0.45174918 -0.077621676 1.1170001
0.44861561 -0.075328469 1.0840001
0.44700664 -0.074633546 1.074
0.44535065 -0.073938638 1.064
0.44491026 -0.073452204 1.057
0.44613001 -0.07324373 1.054
0.44648436 -0.072896272 1.049
0.44767112 -0.072687797 1.046
0.45013475 -0.072687797 1.046
0.45173302 -0.072548814 1.044
0.45419198 -0.072548814 1.044
0.4575257 -0.072687797 1.046
0.4599894 -0.072687797 1.046
0.46333733 -0.072826788 1.0480001
0.46491671 -0.072687797 1.046
0.46827406 -0.072826788 1.0480001
0.47119156 -0.072896272 1.049
0.47366229 -0.072896272 1.049
-0.84261364 -0.1090287 1.6240001
-0.84292054 -0.10956578 1.6320001
-0.8411333 -0.10983432 1.636
-0.83727992 -0.10983432 1.636
-0.83342671 -0.10983432 1.636
-0.82754511 -0.10956578 1.6320001
-0.82370126 -0.10956578 1.6320001
-0.82387632 -0.11010287 1.6400001
-0.82201368 -0.11037141 1.6440001
-0.019261781 -0.1037921 1.5460001
-0.015590159 -0.10359069 1.5430001
-0.011979162 -0.1037921 1.5460001
-0.0083378516 -0.1037921 1.5460001
-0.0047086938 -0.10406063 1.5500001
-0.0010606934 -0.10432918 1.554
0.0025994584 -0.10432918 1.554
0.0062596104 -0.10432918 1.554
0.0099197617 -0.10432918 1.554
0.013544959 -0.10406063 1.5500001
