# .PCD v0.7 - Point Cloud Data file format
VERSION 0.7
FIELDS x y z
SIZE 4 4 4
TYPE F F F
COUNT 1 1 1
WIDTH 1458
HEIGHT 1
VIEWPOINT 0 0 0 1 0 0 0
POINTS 1458
DATA ascii
0.16348466 0.086196721 1.306232
0.17631333 0.075587377 1.307296
0.18765661 0.067957856 1.309648
0.21073116 0.075459048 1.3080525
0.11339794 0.12124506 1.30316
0.44150659 0.15620074 1.322647
-0.14582226 0.14809898 1.3139991
0.10382707 0.12987708 1.306821
-0.26479748 0.15633422 1.3116267
-0.25775588 0.16013767 1.3098698
-0.14627714 0.15021272 1.3108525
-0.14198607 0.14900663 1.3019065
0.12269771 0.1320689 1.3042513
0.14077386 0.1311577 1.3065563
0.15835598 0.13976695 1.3055749
0.17307612 0.13412943 1.305449
0.25075945 0.16986865 1.3129895
0.26346299 0.17123625 1.3152428
-0.24660863 0.1659928 1.3120649
-0.22347562 0.17742282 1.313252
-0.21735488 0.17835733 1.3130466
-0.16395235 0.17005597 1.3072557
-0.15398774 0.16247296 1.3074632
0.21615668 0.16642085 1.3075302
0.23408441 0.16764981 1.3108891
0.24475782 0.16871066 1.3071883
0.26879659 0.17239611 1.3094819
0.37785432 0.183568 1.3063333
0.48077789 0.18309994 1.3090073
-0.20389284 0.18325715 1.3060269
-0.18874802 0.18208739 1.307603
-0.17386259 0.1769096 1.3037703
0.22043535 0.16614464 1.3094141
0.22568014 0.16627441 1.3128872
0.2772857 0.17423275 1.3100332
0.28211799 0.17300254 1.3164266
0.30145857 0.17653035 1.3145872
0.38812155 0.18254407 1.3140525
0.4934701 0.19922329 1.3058102
0.49760979 0.20015712 1.3149738
0.13852574 -0.33500421 1.3512348
0.15574284 -0.33844358 1.339921
0.16707805 -0.34431794 1.3328331
0.12605554 -0.318537 1.3529484
0.13757829 -0.32575765 1.3451172
0.1506297 -0.31135386 1.3160101
0.15040721 -0.30608723 1.3193728
0.12612465 -0.31132603 1.3505627
0.13357264 -0.30999002 1.3362201
0.14875989 -0.30744013 1.3271387
0.15643559 -0.30445316 1.3148854
0.14353217 -0.31143653 1.3423022
0.15449749 -0.30588856 1.3365505
0.16998327 -0.28710687 1.3311141
-0.013456116 -0.058869027 1.325826
0.07645411 -0.051726464 1.3214669
0.091279104 -0.050136257 1.3290336
0.11306408 -0.044422798 1.3215824
0.12979493 -0.042154577 1.3255287
0.14594677 -0.041282378 1.3290131
0.18948206 -0.040449042 1.3278791
0.15607193 -0.04101871 1.3298393
0.17036512 -0.040666644 1.3300376
0.1824878 -0.040480662 1.3297464
0.16156597 0.086745158 1.3249508
0.17478678 0.078009307 1.3268647
0.18759972 0.072006769 1.3341941
0.20440939 0.079330884 1.3179411
0.16077663 0.089746043 1.3349856
0.11943744 0.12540503 1.3163457
0.44104239 0.14626473 1.3647738
0.11626821 0.13558131 1.3255349
0.43769175 0.16375579 1.3630003
0.43635428 0.15154721 1.364103
-0.26388326 0.15870538 1.3309067
-0.25947258 0.15936555 1.3287793
-0.1539551 0.14880364 1.3274632
0.13501951 0.148517 1.3235784
0.14180335 0.12906249 1.3272104
0.15963554 0.13277219 1.3222244
0.17703371 0.12865062 1.3251543
0.25221238 0.16659093 1.3342792
0.26909822 0.16639897 1.3336736
-0.25063926 0.16353311 1.3312231
-0.23560947 0.17048185 1.3287194
-0.16749652 0.16612969 1.3296654
-0.15849899 0.15897 1.3252238
0.21966669 0.15478757 1.3251528
0.22835182 0.16437978 1.3276439
0.24315597 0.16372435 1.3316112
0.27644566 0.16984978 1.3275168
0.28157115 0.17024095 1.3307594
0.48844254 0.18663359 1.3426957
-0.20584995 0.17684519 1.3287858
-0.18844788 0.17504583 1.3293923
-0.17792816 0.17193733 1.3289402
0.29211748 0.17260817 1.3261112
0.30473039 0.1730044 1.3341495
0.37982279 0.17973787 1.3357753
0.39508781 0.17590407 1.3300574
0.41028926 0.16407993 1.3354039
0.45790473 0.15717784 1.3255159
0.49784616 0.19987521 1.3296534
0.50469297 0.20082599 1.3309224
0.060888536 -0.34142166 1.3650872
0.075939156 -0.33958697 1.3682716
0.09186437 -0.33698106 1.3701475
0.12014974 -0.33832356 1.3666424
0.13342482 -0.34360313 1.3653083
0.15078945 -0.33481145 1.3707062
0.021688819 -0.33040357 1.3688017
0.032579266 -0.33221957 1.3657877
0.055515844 -0.33155215 1.3633033
0.074393995 -0.32901013 1.3622539
0.093868397 -0.32652706 1.3646629
0.11355506 -0.32435599 1.3648353
0.061179653 -0.31210908 1.3664691
0.073703349 -0.31247979 1.3647784
0.08810699 -0.31326309 1.359382
0.11138615 -0.3111783 1.3537217
0.062605754 -0.3055073 1.3724406
0.073611371 -0.30511564 1.3706272
0.085158393 -0.30511683 1.368237
0.13672765 -0.31192854 1.3574023
0.15276976 -0.30054355 1.3537247
0.16878545 -0.29237747 1.3505881
0.07492891 -0.055983409 1.3490999
0.091077268 -0.052856185 1.3454096
0.11177906 -0.048306946 1.3439319
0.13364948 -0.045861743 1.349051
0.14851898 -0.04445298 1.3527799
0.1883688 -0.042822395 1.3520292
0.17102531 -0.042938512 1.349252
0.17381224 0.080617018 1.345129
0.18571255 0.079574339 1.3553993
0.18975528 0.095502406 1.3493083
0.16689286 0.090218455 1.3498914
0.44245866 0.14523384 1.3771968
-0.20303898 0.17222522 1.350318
-0.19398762 0.16903041 1.3560858
0.13575733 0.14270799 1.3401693
0.43178028 0.16472082 1.374333
0.44285744 0.14950427 1.3757782
-0.26278928 0.15919912 1.3473521
-0.16553928 0.14683212 1.3571892
-0.16153574 0.14780407 1.3426899
0.13870212 0.15115529 1.3422836
0.12938806 0.1490816 1.3525631
0.16064444 0.12660369 1.3382834
0.18186828 0.12099546 1.3451146
0.25318059 0.15976159 1.3510877
0.26884601 0.16403851 1.3511132
0.28350449 0.16380465 1.3525945
-0.25062481 0.1624212 1.3495463
-0.23100884 0.16682065 1.3577873
-0.16978005 0.15852854 1.3498837
0.23324697 0.1563483 1.3455528
0.2442352 0.1587438 1.3475927
0.28931481 0.16658701 1.349203
0.34529778 0.17107418 1.3551239
0.48879433 0.18184572 1.3541844
-0.22795941 0.16763331 1.3577714
-0.20707712 0.17195119 1.3489721
-0.18830384 0.16719788 1.3528231
-0.1779329 0.16489165 1.3469385
0.29597303 0.1688683 1.3432302
0.30699363 0.16607317 1.3524688
0.37835988 0.18005456 1.3416576
0.39122981 0.17523077 1.3468573
0.41523877 0.15952806 1.3553987
0.4921771 0.20458567 1.3554974
0.46096256 0.159741 1.3453518
0.47920549 0.17067747 1.3477929
0.49630427 0.19042635 1.3465539
0.50785065 0.20475794 1.3511448
0.097489715 -0.3573384 1.3855307
0.11420944 -0.35622787 1.3827213
0.12941471 -0.3535023 1.3847579
0.14316091 -0.34079102 1.3873956
0.056302719 -0.3557595 1.3726701
0.080305286 -0.34702015 1.3751243
0.097975634 -0.34461176 1.3747457
0.11129208 -0.34518281 1.3762192
0.0005525662 -0.32757369 1.3812405
0.012867509 -0.32542703 1.3738674
0.031372122 -0.3253445 1.3674738
0.04803152 -0.32480067 1.3648582
0.012888114 -0.31335285 1.375231
0.03007004 -0.31125426 1.3722048
0.049414542 -0.31237978 1.3685067
0.094764002 -0.30736724 1.3639029
0.10919093 -0.30313703 1.3688173
0.032621246 -0.29611191 1.3798801
0.051361755 -0.29686254 1.3785665
0.072547682 -0.29674473 1.3795581
0.090172775 -0.29893473 1.3765649
0.10283534 -0.30022031 1.375102
0.13137527 -0.30630055 1.3740456
0.1506117 -0.30554652 1.3745226
0.1691225 -0.28737524 1.3692973
0.086369559 -0.058093671 1.3773117
0.091581881 -0.055722747 1.3654619
0.11110049 -0.053509761 1.3727818
0.1280313 -0.050284926 1.3695886
0.15591756 -0.046516377 1.3687067
0.17076376 -0.045076124 1.3653541
0.18647338 -0.045023683 1.3720359
0.1803488 0.08331003 1.3608543
0.18431611 0.10470154 1.3675878
0.16824056 0.100347 1.3663437
0.17610155 0.091934659 1.367471
0.19628184 0.098899841 1.37017
-0.20204234 0.16793892 1.3678368
-0.18948142 0.16390909 1.3685974
0.13943093 0.14554492 1.3586069
0.31586716 0.15119423 1.3837276
0.32115299 0.15064198 1.3848631
0.42882156 0.16420117 1.3907771
0.43939474 0.16557407 1.3845155
0.44088307 0.16091278 1.3897839
-0.26342255 0.15846497 1.3674819
-0.20680141 0.16700412 1.373778
-0.196648 0.16403617 1.3775967
-0.1705481 0.14375527 1.3709828
0.13654928 0.1501509 1.3670367
0.16119501 0.12105986 1.3560778
0.18079986 0.12185032 1.3604751
0.25457677 0.15534574 1.3699369
0.26910204 0.15787213 1.3693559
0.29013291 0.15860172 1.3702422
0.35090971 0.16314426 1.3732501
0.48345968 0.16986111 1.3749154
-0.25266558 0.16298227 1.3696257
-0.17657591 0.15490009 1.3683209
0.23844634 0.15189846 1.363924
0.2497462 0.15311725 1.3717245
0.29735562 0.16004632 1.3630763
0.30827677 0.16081403 1.3658352
0.33294842 0.16058496 1.3671954
0.35086632 0.16378927 1.3696724
0.36235583 0.16778481 1.3739632
0.48990583 0.18265471 1.3741684
-0.22666113 0.16643266 1.3690554
-0.21604319 0.16765682 1.3701138
-0.1915624 0.16487485 1.3649794
0.30137518 0.16313015 1.3560076
0.41649166 0.15941703 1.3603556
0.49251258 0.19920345 1.3737257
0.48594758 0.16907646 1.3680912
0.49641126 0.18366429 1.3675179
0.50733942 0.19076951 1.3640934
0.094923548 -0.38384321 1.3939872
0.10958105 -0.37428913 1.3976837
0.12467492 -0.37971637 1.3961351
0.055008851 -0.36743405 1.384424
0.067921758 -0.37333208 1.3846382
0.089283653 -0.36953333 1.3912578
0.11128407 -0.36579648 1.3921251
0.12950298 -0.36495674 1.3977004
0.13504311 -0.35773855 1.3985554
-0.0067218808 -0.32107067 1.3849016
-0.017913263 -0.30698124 1.4025418
-0.0086193457 -0.309715 1.3916992
0.0075874389 -0.30605581 1.3824725
-0.017776351 -0.30531889 1.4058177
-0.0077305627 -0.30026969 1.3997389
0.012357054 -0.29392332 1.3890737
0.026183838 -0.28699383 1.387688
0.050024156 -0.28512576 1.3853265
0.069547802 -0.28662908 1.3866106
0.089417875 -0.28832594 1.3886805
0.10752086 -0.29474667 1.3867637
0.13037287 -0.30197859 1.3900925
0.14722516 -0.30786678 1.3970828
0.1710061 -0.29135546 1.3873031
0.032770608 -0.27623042 1.3926827
0.050137609 -0.27575216 1.39231
0.068558931 -0.27790082 1.3932693
0.080979072 -0.28191793 1.3945239
0.05484435 -0.063753329 1.3940395
0.076956481 -0.060492393 1.3854795
0.080538273 -0.060485844 1.3915845
0.097197898 -0.057763129 1.3879063
0.10426126 -0.057099853 1.3904407
0.1326362 -0.052245554 1.3856086
0.14868635 -0.050104838 1.3849347
0.16977797 -0.048961896 1.3909333
0.1851335 -0.046795085 1.3855765
0.19195622 0.11033726 1.3792723
0.19824745 0.11322341 1.3794079
0.42977327 0.11453965 1.4217144
0.17312774 0.11065824 1.3864231
0.17970331 0.097983666 1.3818064
0.19305071 0.098827645 1.3829156
0.19439378 0.11088938 1.3856881
0.20213194 0.11437664 1.3848486
-0.21776587 0.16794661 1.3913603
-0.20673367 0.1659146 1.389627
-0.18904591 0.15820196 1.3881918
0.14657916 0.14392547 1.3728865
0.140111 0.1463749 1.3845888
0.31268677 0.14839199 1.3914402
0.32958704 0.14424181 1.3956679
0.3533228 0.15018898 1.4051335
0.36656827 0.15403885 1.4053378
0.4268173 0.159437 1.4071925
0.43049648 0.15760364 1.4127519
0.44491944 0.16219468 1.3910114
-0.26621667 0.16424701 1.3937159
-0.20218779 0.16443707 1.3871154
-0.19002548 0.15730581 1.3938233
-0.17690368 0.14630507 1.3903259
0.13578579 0.14731257 1.3865908
0.16117734 0.11678396 1.379541
0.18102318 0.11540413 1.3804448
0.19529107 0.11923344 1.3797414
0.25603801 0.14969914 1.387934
0.27201763 0.15290003 1.3899477
0.29153523 0.15181221 1.3882687
0.30999526 0.14863706 1.3902723
0.32825246 0.14681935 1.3913811
0.35186031 0.15343586 1.390746
0.36493635 0.15608856 1.3975145
0.44376177 0.16447105 1.3990883
0.48141593 0.1759627 1.3881531
-0.26177216 0.16584916 1.3938962
-0.24870728 0.16579141 1.3881198
-0.18544926 0.15432094 1.3899962
-0.17929561 0.1521779 1.3809394
0.24776039 0.14903681 1.381345
0.31226686 0.15352601 1.379068
0.33143434 0.15316512 1.3806996
0.34480101 0.1562417 1.3805515
0.36928937 0.16187479 1.3858348
0.48965368 0.18128945 1.3957651
0.48995551 0.18406288 1.3871789
-0.22856401 0.1665386 1.3872998
-0.20755444 0.16492404 1.3854907
-0.19261293 0.16056804 1.384174
0.39546636 0.1643126 1.3795993
0.41662571 0.16148515 1.3791215
0.43362433 0.15895143 1.3812237
0.50221938 0.18260899 1.389091
0.49751121 0.19763307 1.3863145
0.47019514 0.16431092 1.3778596
0.49850628 0.18093704 1.3846959
0.087988049 -0.40177369 1.4173367
0.11071591 -0.40156543 1.4162468
0.12552243 -0.40025613 1.4182938
0.073376127 -0.39013851 1.4022962
0.088526808 -0.3935003 1.4053868
0.10983771 -0.3935723 1.4043936
0.12840998 -0.39143559 1.4099398
0.14406766 -0.3841027 1.4094009
0.070966639 -0.38238949 1.3918191
0.084369034 -0.38458982 1.3916337
0.13948154 -0.36868665 1.4081993
-0.026773451 -0.31897253 1.3989922
-0.025360657 -0.3124952 1.4045696
-0.018757682 -0.31303343 1.397491
-0.0055046706 -0.29405743 1.4041258
0.0082931528 -0.28391299 1.4016705
0.096364789 -0.27844003 1.4015752
0.1162485 -0.28594038 1.3982699
0.13080087 -0.29815775 1.4083484
0.1436011 -0.30063301 1.4144906
0.16351895 -0.30350915 1.4130402
0.17582743 -0.30264065 1.4125146
0.017257987 -0.26996133 1.4083898
0.02887607 -0.26495287 1.4056025
0.049596727 -0.26296493 1.4011003
0.071887739 -0.26490945 1.4049004
0.085708685 -0.27008018 1.4073857
0.033412632 -0.25514406 1.4125323
0.051111538 -0.25191548 1.4117109
0.067652404 -0.25336006 1.4141562
0.052508883 -0.24013348 1.4206705
0.064870387 -0.24178761 1.4209296
0.054178394 -0.23061052 1.4295181
0.061285485 -0.23091616 1.4295037
0.047184799 -0.066683739 1.4067171
0.095147565 -0.061154287 1.40965
0.11150614 -0.059085254 1.4066384
0.12994157 -0.056373257 1.4069955
0.14907119 -0.05333643 1.4055392
0.17069502 -0.051598385 1.4106901
0.18675566 -0.049709801 1.410781
0.42553762 0.11857039 1.4275277
0.17447962 0.12249306 1.4040202
0.18430066 0.11409834 1.4011582
0.19059344 0.11388024 1.4053626
0.20308334 0.11441389 1.4010099
0.42823768 0.12380454 1.4367524
0.43136215 0.12624861 1.4316069
-0.20692019 0.16423562 1.4106426
0.1372267 0.14271769 1.406413
0.20072868 0.11753618 1.4138149
0.20798902 0.12117715 1.4142054
0.30990893 0.14094311 1.409045
0.33308113 0.140195 1.4088156
0.34919304 0.14429916 1.4115876
0.37090775 0.1473121 1.4184258
0.38390815 0.14610475 1.4208657
0.4290615 0.15298857 1.4216635
0.43100396 0.15294313 1.4237953
0.45049965 0.16435629 1.4045371
0.45845076 0.15579134 1.4063352
-0.20471084 0.16252157 1.409466
-0.18948156 0.15125042 1.4046646
-0.1814775 0.13978559 1.3989189
0.13632958 0.14105061 1.4048781
0.14727753 0.12682611 1.4086159
0.17611974 0.11276089 1.4042062
0.19838516 0.11589981 1.4049675
0.20844682 0.12031479 1.4124963
0.25517792 0.14585422 1.4064186
0.26786622 0.1488371 1.4055942
0.29211497 0.1460162 1.4088497
0.30194381 0.14413768 1.4065534
0.33454466 0.14235513 1.4000293
0.34820527 0.14504619 1.4046358
0.37390235 0.15362681 1.4022801
0.3805441 0.15374172 1.4068837
0.47934356 0.17320621 1.4024738
-0.26145685 0.17124072 1.4137038
-0.25495094 0.17249933 1.4095062
-0.19287772 0.15401323 1.4065417
0.24791665 0.14386651 1.4029006
0.37754607 0.15576395 1.398026
0.38549453 0.15438935 1.4044123
0.4853192 0.18019804 1.4092903
0.48856249 0.18303625 1.4034901
-0.2420564 0.17308007 1.4142802
-0.22995414 0.17083453 1.4069716
-0.21423639 0.1663478 1.408301
-0.20040859 0.16038781 1.4080044
0.38790837 0.1574295 1.4006115
0.42053318 0.16054913 1.4020565
0.43827489 0.15985698 1.4007704
0.50111216 0.17665584 1.4073195
0.49856642 0.18910412 1.4055736
0.47760776 0.16844501 1.4053742
0.49068639 0.17156112 1.4037403
0.091365494 -0.42177054 1.4374785
0.10703665 -0.4223218 1.438439
0.07855767 -0.40777022 1.426434
0.090799019 -0.41236386 1.4281844
0.11003549 -0.41462919 1.4312419
0.12916012 -0.40857568 1.4306997
0.14165074 -0.40359148 1.4330908
0.077491775 -0.40050286 1.4185356
0.13898753 -0.39735293 1.4196069
0.15049002 -0.39165071 1.4303296
0.15581837 -0.38316527 1.4447395
-0.0040587448 -0.2776615 1.4253873
0.0022312948 -0.27631098 1.4178988
0.10311504 -0.27198231 1.4170464
0.12261897 -0.28214222 1.4161637
0.1394113 -0.29151309 1.4237686
0.14687702 -0.2934958 1.4304726
0.16492486 -0.29635417 1.430872
0.18361844 -0.28204101 1.4315605
-0.0031929261 -0.27263284 1.432514
0.0076662865 -0.2656554 1.4231057
0.092992574 -0.26241565 1.4240316
0.011190762 -0.25451085 1.4323339
0.031160187 -0.24558978 1.4230862
0.04260581 -0.24357571 1.4205973
0.079055429 -0.2520065 1.4221702
0.086211152 -0.25059518 1.4307411
0.039023191 -0.23411112 1.4318918
0.044317141 -0.23314774 1.4300323
0.073471449 -0.23688225 1.4332663
0.079698414 -0.23703361 1.4394678
0.051578812 -0.22199391 1.4394568
0.063513845 -0.22317021 1.439526
0.07440234 -0.22623497 1.4446092
-0.017917888 -0.069640316 1.4379822
0.030912844 -0.06819433 1.4304636
0.059996154 -0.066086434 1.4359564
0.071105383 -0.064660281 1.4229746
0.08898031 -0.065063991 1.431437
0.10168765 -0.064112119 1.4289573
0.13585971 -0.062222265 1.4351009
0.14812468 -0.058158986 1.4292629
0.11229625 -0.063120954 1.4285306
0.12593594 -0.06272915 1.4316472
0.15940699 -0.055269431 1.4239302
0.17071733 -0.054703183 1.4289207
0.18747626 -0.052117318 1.4306005
0.42961058 0.1029826 1.4534328
0.417649 0.11280882 1.4481075
0.17136247 0.13164784 1.4284019
0.17973261 0.12743071 1.4238465
0.18852064 0.11660264 1.417598
0.20175663 0.12090524 1.4263592
0.21447645 0.12797031 1.4271079
0.42152283 0.12031316 1.4501849
0.42374456 0.12273506 1.4544731
0.18334754 0.12546651 1.4292495
0.19108453 0.11676704 1.4316036
0.20627081 0.12131381 1.4281192
0.22043052 0.12666136 1.4365786
0.35528043 0.13305041 1.4363723
0.36817199 0.13087125 1.4358695
-0.21429649 0.16826899 1.4225485
-0.20258103 0.1489182 1.4317997
0.13366902 0.13507175 1.4288596
0.14657289 0.13289791 1.4302773
0.17347711 0.11665935 1.4286394
0.19138245 0.11472125 1.4248027
0.21609017 0.12433878 1.422105
0.22522295 0.12645274 1.4319921
0.30901411 0.13757913 1.4286464
0.32671434 0.13325642 1.4318345
0.37459823 0.1376119 1.4310712
0.3848348 0.13435204 1.4327111
0.43076637 0.14781377 1.4364289
0.46411446 0.15759745 1.4187504
-0.20669582 0.16088569 1.4238312
0.15599671 0.12583186 1.4207293
0.1668373 0.11806292 1.4202909
0.21622407 0.12346281 1.4217042
0.23410217 0.12938558 1.4289341
0.25253293 0.13902275 1.426677
0.27208516 0.1453744 1.4254477
0.29253003 0.14185604 1.4279475
0.3924461 0.14160286 1.4215587
0.46003222 0.16632622 1.4294825
0.46591648 0.16634136 1.4249023
0.47739571 0.1734326 1.4211712
-0.26110336 0.17442003 1.4365994
-0.20959392 0.16068915 1.4343909
-0.20434023 0.15608492 1.4229869
0.2184173 0.12272181 1.4299188
0.23690933 0.13389114 1.4203713
0.39847708 0.14975026 1.4150627
0.42623955 0.15265733 1.4216465
0.43532786 0.15243264 1.4278052
0.4846116 0.18247913 1.4271197
-0.24217962 0.18044858 1.434824
-0.23080882 0.17873055 1.4287227
-0.21566944 0.17051473 1.4288865
-0.2085548 0.1626908 1.4253186
0.40528783 0.15656723 1.413256
0.42014486 0.15575199 1.4163742
0.44090855 0.15939811 1.4201307
0.4933669 0.19112323 1.4294848
0.49230278 0.1913282 1.4189405
0.46420994 0.16393337 1.4358494
0.4750804 0.16656497 1.4238019
0.49469745 0.17470285 1.4295524
0.094428651 -0.42686298 1.4421123
0.11056533 -0.42770746 1.443874
0.12830275 -0.4251425 1.4497283
0.098319806 -0.42314196 1.4384768
0.13038805 -0.41765276 1.4422733
0.14620504 -0.4105289 1.4497694
0.157464 -0.40166101 1.4560113
0.16401984 -0.3876538 1.4434569
0.11669568 -0.27720729 1.4424896
0.14177997 -0.2875236 1.4430112
0.14937609 -0.29143909 1.4491241
0.1678762 -0.28983337 1.4483268
0.183056 -0.28404376 1.4491254
0.10063989 -0.25822619 1.4399872
0.10732642 -0.2607775 1.4498417
0.012964715 -0.24262066 1.4438279
0.026138676 -0.23559664 1.4375868
0.095881619 -0.24807124 1.4485435
0.10154581 -0.2508938 1.4562844
0.0067678834 -0.23759645 1.454849
0.036455471 -0.22651817 1.4407921
0.042711426 -0.21891041 1.4456599
0.088331617 -0.23684961 1.4520211
0.049527228 -0.21162705 1.4508744
0.063134931 -0.21126851 1.4544545
0.078433588 -0.22446048 1.4532813
-0.012877241 -0.06979239 1.4511087
0.05202046 -0.068951733 1.4528142
0.09590175 -0.067509212 1.4468726
0.11012281 -0.069095396 1.4488877
0.13119847 -0.068722636 1.4512705
0.14729521 -0.0649698 1.4501004
0.16853349 -0.060832072 1.4511496
0.19078235 -0.057262827 1.4581076
0.17430404 -0.057749175 1.4452956
0.18965007 -0.055141035 1.4486579
0.4310815 0.091452368 1.4620816
0.4253763 0.06043534 1.4542804
0.42279288 0.10430786 1.4634546
0.20956326 0.12321308 1.4395882
0.21585424 0.12549154 1.4510581
0.41541684 0.10921461 1.4646226
0.42169088 0.11396656 1.4638681
0.17905995 0.12894917 1.4451909
0.18366681 0.12038834 1.4462298
0.21110824 0.12266481 1.4400752
0.22137587 0.12476791 1.4504634
0.36234829 0.1291351 1.4604651
0.37072825 0.1264931 1.4526567
0.4280493 0.12179294 1.4640144
0.43311131 0.12929125 1.4662344
-0.21141087 0.13992968 1.4565876
0.1363297 0.13502106 1.4480534
0.14967851 0.13026494 1.447338
0.17082444 0.12246762 1.4485291
0.1836485 0.11743871 1.4480534
0.23272136 0.12843566 1.4470224
0.24469459 0.12854947 1.4559709
0.31293449 0.13396347 1.4484689
0.33614984 0.13024126 1.4518498
0.34627935 0.13243359 1.4446718
0.38015652 0.1249278 1.4464345
0.39374581 0.12478586 1.4448726
0.40817383 0.12222122 1.4458588
0.43347779 0.14243169 1.4549429
0.46933162 0.16109358 1.4296174
0.23976178 0.13004957 1.4396124
0.25157893 0.13308504 1.4463015
0.26761815 0.14126696 1.4442164
0.28778544 0.14044558 1.4507048
0.30125839 0.13633694 1.4477183
0.40302727 0.13961461 1.427523
0.42199516 0.13336061 1.4412317
0.4368293 0.13914157 1.4515243
0.43667719 0.1464964 1.4454719
0.46323511 0.17016551 1.4469116
0.46929321 0.17315765 1.4447668
0.4751882 0.17257619 1.4372764
-0.26631412 0.17055331 1.4494134
-0.25691405 0.17736414 1.4410201
-0.22080952 0.17257814 1.4558964
-0.21590771 0.16884835 1.4465501
0.22431345 0.12532535 1.4321475
0.4066079 0.14381763 1.4248143
0.4242284 0.14566514 1.4326278
0.43805385 0.14769317 1.439576
0.46356064 0.16943692 1.4566699
0.48164779 0.18316667 1.4478784
-0.25317064 0.17829533 1.4503394
-0.22769436 0.17764822 1.4522264
-0.22029701 0.1744145 1.4450214
0.44712114 0.15578102 1.4397855
0.45930231 0.16140997 1.4458798
0.49095368 0.18860513 1.4496335
0.48302191 0.17353322 1.454775
0.49484774 0.17957334 1.4495513
0.1385268 -0.4270944 1.4623859
0.14436731 -0.42823562 1.4723034
0.1505781 -0.41701713 1.4675955
0.16147906 -0.40276134 1.4691738
0.12213751 -0.27514896 1.4624628
0.13594514 -0.28741986 1.4661942
0.14872955 -0.28883788 1.470786
0.16579993 -0.28972358 1.4639956
0.11532025 -0.2629196 1.4682724
0.10796888 -0.25419801 1.4682064
0.11412758 -0.25706536 1.4800657
0.013870351 -0.2230666 1.4603505
0.032439485 -0.21391499 1.4537624
0.094771296 -0.22602798 1.4799016
0.10187669 -0.24262498 1.472688
0.010941777 -0.21220621 1.4740278
0.036316797 -0.20130327 1.4641429
0.046652213 -0.20210634 1.4610753
0.064370744 -0.20411149 1.4643627
0.086354926 -0.22209707 1.4671545
0.0077501102 -0.20438768 1.485624
0.049907833 -0.19206738 1.4720446
0.06600447 -0.197835 1.4734114
0.035673775 -0.17508863 1.4941405
0.044798564 -0.17672034 1.4916211
0.03835671 -0.16846505 1.4991674
0.049264226 -0.16827305 1.4985123
0.11305054 -0.083434105 1.4842012
-0.0026566877 -0.070012584 1.4706252
0.042104196 -0.073131852 1.4695917
0.069825031 -0.074638054 1.4671532
0.090396814 -0.073275529 1.4656299
0.11209134 -0.07482589 1.4668388
0.13010329 -0.076306693 1.4699138
0.14968488 -0.074337155 1.4720194
0.17060232 -0.066583432 1.468726
0.18928556 -0.061940741 1.4703484
0.42281413 0.061598673 1.4701377
0.42604139 0.093608089 1.4773327
0.22481057 0.12426065 1.4704137
0.23433849 0.1251768 1.4794469
0.42039916 0.097688153 1.4776767
0.41964579 0.10697354 1.4748801
0.17169768 0.11833452 1.4677286
0.22968748 0.12419473 1.4689225
0.35960883 0.12945721 1.4686481
0.37528491 0.12480408 1.4709864
0.38669491 0.1143447 1.4701961
0.42727014 0.11989482 1.4759816
0.42301196 0.13674349 1.4659044
0.42765093 0.13829876 1.4659032
-0.21552095 0.14291443 1.4797158
0.15037689 0.13038269 1.4691834
0.17039721 0.11552916 1.4688201
0.23814489 0.12660877 1.4639783
0.24362485 0.12699331 1.4654224
0.31636208 0.13284022 1.4642457
0.35710329 0.12796164 1.4809394
0.39580107 0.11167091 1.4624425
0.4206613 0.11783334 1.4572219
0.43004546 0.13046077 1.4682591
0.43132004 0.14150585 1.4652048
0.47275758 0.16458002 1.4486123
0.25550571 0.13039097 1.466272
0.27020949 0.13980432 1.4654939
0.29124373 0.14098834 1.4674821
0.30444553 0.13679746 1.4739349
0.42873096 0.13099121 1.4507318
0.43411383 0.13489617 1.4544394
0.472067 0.17882699 1.4520247
0.47569928 0.1685078 1.4483908
-0.2680116 0.17074725 1.466367
-0.26227906 0.17395052 1.4651731
-0.22671078 0.17727439 1.4682982
0.45047763 0.15178694 1.4568558
0.45750773 0.15435848 1.465791
0.46868381 0.17595485 1.4672469
0.47329259 0.1827414 1.4620267
-0.25431779 0.17766134 1.4675658
-0.23362225 0.17954229 1.4651688
0.45305416 0.15442353 1.4531599
0.4639931 0.16001178 1.4636033
0.48491046 0.19026634 1.4686182
0.47836405 0.17364196 1.4679375
0.49277785 0.18669717 1.4700235
0.15147081 -0.43103465 1.4900687
0.16546361 -0.40525734 1.4905183
0.12591147 -0.27519456 1.484015
0.13613489 -0.2804105 1.4890808
0.14731516 -0.28491497 1.4891019
0.16857493 -0.28677201 1.4913838
0.18858372 -0.28391841 1.4923769
0.12310922 -0.26578143 1.4843185
0.12694433 -0.26725391 1.4943019
0.11124631 -0.2477098 1.4912019
0.12076502 -0.25786641 1.4938402
0.10132387 -0.23022296 1.4921541
0.017831067 -0.19778726 1.4786412
0.030749502 -0.19699219 1.4696776
0.012873509 -0.19065602 1.4893821
0.030925082 -0.18548627 1.4806174
0.050714351 -0.18336548 1.4834735
0.069768839 -0.18875876 1.484071
0.012573329 -0.17507277 1.499393
0.03049631 -0.17755707 1.4923953
0.04948673 -0.17335266 1.4939425
0.018003428 -0.16055903 1.5070013
0.031834144 -0.15748042 1.5067176
0.051229198 -0.15767117 1.5056605
0.096260317 -0.096592069 1.5041955
0.10574981 -0.09376619 1.5039588
0.12682046 -0.093041629 1.5015144
0.13928474 -0.094583638 1.5027587
0.09753298 -0.093798175 1.5003198
0.10725396 -0.086248115 1.4903219
0.12929422 -0.086090423 1.4887258
0.14855157 -0.087661847 1.494477
0.0073589138 -0.07366211 1.5074981
0.0045262203 -0.069076784 1.4960692
0.032521579 -0.071644664 1.4932905
0.052937891 -0.080349043 1.4896327
0.088988975 -0.087336071 1.4882038
0.11150037 -0.08324302 1.4821452
0.1291056 -0.081449829 1.4813149
0.15126684 -0.081765249 1.4860959
0.16931057 -0.078593753 1.4886447
0.18990394 -0.072352074 1.490256
0.20441291 -0.072357275 1.4969741
0.42200828 0.062208097 1.4958681
0.41380677 0.048109014 1.4871289
0.42244792 0.089935333 1.4976457
0.2330562 0.11821715 1.49216
0.41897404 0.094953313 1.4951073
0.40957963 0.11157656 1.4898314
0.16682105 0.11766241 1.4897352
0.23204213 0.12130198 1.483161
0.23835662 0.11969051 1.4939294
0.37335807 0.12522697 1.4921346
0.39084569 0.11822634 1.4930986
0.39662802 0.10892937 1.4934186
0.42050728 0.12015052 1.4928353
0.43342692 0.14091718 1.470747
-0.21981284 0.12931295 1.4866104
0.15325999 0.12745382 1.4901906
0.1660514 0.11478949 1.4883397
0.247954 0.12332894 1.4881254
0.3157953 0.13697264 1.4949399
0.32581738 0.13283575 1.4865129
0.35405514 0.12868777 1.4892676
0.42129061 0.101968 1.477965
0.4266791 0.11925551 1.4840254
0.2591764 0.12787023 1.4853568
0.27181137 0.13965671 1.4883038
0.29141885 0.14149757 1.4885358
0.30866984 0.13943076 1.4949269
-0.26833436 0.1723721 1.4903588
-0.26350245 0.17416562 1.4804366
-0.23407811 0.17932662 1.489822
0.46710658 0.16012223 1.4881803
0.46808714 0.17968388 1.4845948
0.46831292 0.18861277 1.490239
-0.25399387 0.17753595 1.491248
-0.23812471 0.18045267 1.484911
0.47209287 0.16406649 1.480671
0.47931996 0.19724272 1.4893202
0.48171675 0.18635988 1.4918851
0.48785174 0.18748754 1.4919116
0.15156421 -0.44160926 1.5048743
0.1608301 -0.42433289 1.5075564
0.16261633 -0.41715273 1.5013182
0.13811676 -0.27787697 1.5011164
0.15329599 -0.28275013 1.5113913
0.17028417 -0.28622377 1.5119158
0.13276443 -0.27265278 1.5054468
0.1412079 -0.27748862 1.509752
0.12687108 -0.25836086 1.5135202
0.10856987 -0.23129165 1.5118618
0.060618252 -0.17642961 1.4910601
0.073016718 -0.17755918 1.4949294
-0.0019580866 -0.16824321 1.5136263
0.0063733207 -0.16636446 1.5080073
0.057875659 -0.16796194 1.4977274
0.06789089 -0.1629415 1.5020462
-0.00085652026 -0.15973414 1.5170969
0.011081259 -0.15155353 1.5140759
0.03132676 -0.14427914 1.5127771
0.054643396 -0.14700226 1.5102521
0.068422057 -0.1497336 1.5120368
0.015379807 -0.13624284 1.5210893
0.029120203 -0.13564508 1.5178001
0.051758088 -0.1312574 1.5169464
0.066714399 -0.13215947 1.5174913
0.10266558 -0.11923278 1.5238861
0.051234402 -0.11083569 1.518543
0.064754859 -0.11481865 1.5180688
0.092871316 -0.11026593 1.5126165
0.10570147 -0.1094352 1.5182559
0.12725256 -0.10432293 1.516253
0.14815989 -0.10158134 1.5138458
0.050385449 -0.093070582 1.5091041
0.070603468 -0.099605404 1.5053934
0.090604223 -0.10034961 1.5027829
0.15381953 -0.095478922 1.5070446
0.1701239 -0.094309233 1.5103545
0.18860362 -0.089695677 1.5135858
-0.0063138078 -0.074187554 1.5150154
0.010519651 -0.073733248 1.5108539
0.021634132 -0.073900759 1.5054353
0.049225423 -0.084370963 1.5028234
0.069234177 -0.088979386 1.4950856
0.17751138 -0.083297819 1.5000945
0.1915392 -0.080206014 1.5028113
0.20507117 -0.080824129 1.5082191
0.42200842 0.062022395 1.5168252
0.41864637 0.049647193 1.5091285
0.41781896 0.08045233 1.5151402
0.24208319 0.11911014 1.5084299
0.41216612 0.091446444 1.5128481
0.40466544 0.094162136 1.5023403
0.1640965 0.12043566 1.5071
0.24671984 0.12023512 1.5131872
0.37336257 0.12014197 1.5109364
0.39131927 0.11055959 1.5104926
0.40507486 0.12117952 1.5102683
0.40105596 0.11903729 1.5062665
-0.22209026 0.13378896 1.5040313
0.15596154 0.12435497 1.5086057
0.1618152 0.12142988 1.5031613
0.25490665 0.12202625 1.517911
0.3254523 0.13669556 1.5140897
0.27174336 0.13951647 1.5081884
0.28982481 0.14381824 1.5147393
0.30855992 0.14086911 1.5120785
-0.26924086 0.17204179 1.5115955
-0.25385875 0.17655413 1.5080385
0.47004199 0.19131555 1.5053526
-0.25340581 0.17695542 1.5026443
0.47636461 0.16945057 1.4958234
0.47535539 0.18823767 1.5122448
0.47794411 0.19704491 1.5043212
0.47880906 0.19408633 1.5107354
0.48314568 0.19980395 1.5059544
0.16479126 -0.4269174 1.5289246
0.15570296 -0.28215969 1.5274506
0.17158419 -0.28667811 1.5298561
0.1891436 -0.287747 1.5286899
0.13486972 -0.2659086 1.530089
0.14489326 -0.27567288 1.5284315
0.13178961 -0.25875041 1.5264508
0.11516295 -0.23446596 1.527725
0.081678391 -0.17361161 1.5032694
-0.0084597506 -0.162513 1.5237253
0.078059956 -0.16540326 1.5053008
-0.0049937717 -0.15025787 1.5266396
0.0033340282 -0.14431664 1.5234541
0.077986799 -0.14126459 1.5204973
-0.0033473792 -0.13520811 1.5336909
0.0087322593 -0.12838803 1.5264204
0.029058173 -0.12408773 1.5210109
0.041304588 -0.12461976 1.5182151
0.075222671 -0.12827136 1.520828
0.090347968 -0.1301268 1.5238364
0.10852905 -0.12770323 1.5317113
0.12730633 -0.12056743 1.531889
0.015017419 -0.11641633 1.5301038
0.028731523 -0.10980894 1.5245026
0.047460921 -0.11058091 1.5195323
0.072266601 -0.11373916 1.5134969
0.084928028 -0.11707406 1.5152919
0.13687135 -0.11487831 1.5290716
0.1506349 -0.11204462 1.5297911
0.17059065 -0.10794949 1.530039
0.18943346 -0.10676536 1.5349329
0.20492159 -0.10589713 1.5369639
0.01181013 -0.087795287 1.5274566
0.02740215 -0.090064846 1.5189527
0.041374359 -0.095432796 1.5149549
0.08272887 -0.1049846 1.5067856
0.17672727 -0.10036501 1.5209078
0.19342828 -0.095590197 1.5219811
0.20696795 -0.095212556 1.5249329
0.0086442688 -0.080243021 1.5233756
0.026246214 -0.083185345 1.5169787
0.41972736 0.057545379 1.5330038
0.42154998 0.046048507 1.5265305
0.41187611 0.078954354 1.5329896
0.40524632 0.088118985 1.5300181
0.24608527 0.1211697 1.5229124
0.37347144 0.11658946 1.5310034
0.38584 0.10693349 1.5300338
0.40018809 0.096540123 1.5228307
-0.22605659 0.13065803 1.5264815
-0.22631717 0.1183449 1.5235173
0.16047654 0.12092981 1.5218813
0.25630993 0.12325034 1.5316986
0.33224234 0.13393585 1.5290575
0.34778568 0.1271725 1.5392575
0.2733182 0.14140849 1.5288399
0.28216162 0.14192687 1.5388919
0.30717787 0.14242561 1.5324993
-0.26866612 0.16943076 1.5323015
-0.25717697 0.17190565 1.5272402
0.4785628 0.19031203 1.5257415
0.48127618 0.18992515 1.5302486
0.16667369 -0.430987 1.5428094
0.15809603 -0.28159335 1.5463564
0.1696521 -0.28628206 1.546252
0.14561342 -0.27202818 1.549492
0.11934603 -0.23232508 1.5495392
0.12168445 -0.23875594 1.5432087
-0.012936963 -0.14174791 1.5411621
-0.0097011896 -0.12897655 1.5494317
0.0032851526 -0.12156544 1.5355557
0.11838188 -0.13567847 1.544378
0.13015236 -0.13153334 1.5486403
0.15041955 -0.12497447 1.5494995
0.16945815 -0.12423095 1.5545324
0.19057004 -0.12057147 1.5558912
0.20327422 -0.11648757 1.5509679
-0.0067559513 -0.11078995 1.5543082
0.0061639068 -0.10697636 1.5370957
0.017478479 -0.10546788 1.5287381
0.15767741 -0.12034678 1.5432839
0.17025767 -0.11816911 1.5441624
0.1888689 -0.1147402 1.546389
0.20452693 -0.11265014 1.5459524
-0.011685783 -0.089810081 1.5474113
0.0044789999 -0.090989843 1.5331361
0.017866522 -0.097578511 1.5286273
0.41904801 0.053726152 1.5517113
0.42480239 0.043688402 1.5421858
0.40130997 0.079392172 1.5578728
0.40935671 0.072741248 1.5506701
0.39825946 0.086045273 1.5530344
0.39788395 0.088744514 1.5467049
0.25879917 0.11062029 1.5555367
0.36890304 0.1147826 1.5487609
0.38480896 0.10276618 1.5457994
0.39583448 0.090237394 1.5434195
-0.23627812 0.1395196 1.555921
-0.23131627 0.13117495 1.5520018
0.25958571 0.11912355 1.5476607
0.33042964 0.13264643 1.5537388
0.34912673 0.12538882 1.5499427
0.27636373 0.14053109 1.5458971
0.29272062 0.14301495 1.5507877
0.30809379 0.14090933 1.5511067
-0.27799258 0.16545203 1.5470566
-0.27708015 0.16402797 1.5572555
-0.25671777 0.16501221 1.5469501
0.4853695 0.18312751 1.5431224
0.16897373 -0.4414283 1.5679471
0.17344519 -0.43969059 1.5749456
0.15843035 -0.28077197 1.5638046
0.17276715 -0.28793505 1.5649821
0.18834731 -0.29368126 1.5715866
0.15049408 -0.2741352 1.5693302
0.13091667 -0.24342676 1.5722561
0.1396503 -0.26252553 1.5645541
0.12740566 -0.23605648 1.570662
0.12872705 -0.14697388 1.574616
0.13165019 -0.13883197 1.5662335
0.15082504 -0.13377704 1.5702033
0.17008443 -0.12991486 1.5682451
0.19106033 -0.12719476 1.5697693
0.20082195 -0.12452222 1.5652424
-0.023998398 -0.086507663 1.5597546
-0.022085341 -0.08655192 1.5567751
0.41480574 0.053785935 1.5699803
0.37812212 0.098548867 1.5787646
0.38549766 0.089551002 1.5767939
0.39548475 0.078161009 1.5721921
0.40652469 0.063938923 1.5684092
0.37288302 0.10271527 1.5805176
0.38105139 0.095229171 1.5748402
0.38897902 0.088147365 1.5684643
0.3915247 0.089330286 1.5613183
0.25996074 0.10971247 1.5610012
0.26176485 0.11085573 1.5679935
0.3682192 0.11124635 1.5635394
0.38103724 0.097292662 1.5672004
0.38836789 0.090501875 1.5649018
-0.24027018 0.13368312 1.5754808
0.3355518 0.13018799 1.5608459
0.34932068 0.12244302 1.5722593
0.35896608 0.11655144 1.5714669
0.27633235 0.132182 1.5722587
0.28454897 0.13877536 1.5665724
0.31567976 0.13661215 1.5718356
0.32352892 0.133938 1.5609245
-0.27126107 0.16208807 1.5615202
0.16658446 -0.46043122 1.5830351
0.1712646 -0.45602733 1.5941062
0.15778001 -0.27945504 1.5968854
0.17042422 -0.28852785 1.5899475
0.15275283 -0.27500421 1.5899564
0.13278149 -0.24205083 1.5901444
0.13122347 -0.23755158 1.5930395
0.13784285 -0.14767332 1.5874224
0.14360203 -0.1458298 1.5913068
0.13579665 -0.14539702 1.5794441
0.14922296 -0.13926618 1.5883863
0.16947825 -0.13572519 1.5896624
0.19016188 -0.1344254 1.5885873
0.20423391 -0.13274731 1.584398
0.41133443 0.05195592 1.5900694
0.41996089 0.047316391 1.5879271
0.37761027 0.09363164 1.5914142
0.38650826 0.080347762 1.5922867
0.3948566 0.070027307 1.5904143
0.40376347 0.059278715 1.5868236
0.36942402 0.10224628 1.5924388
0.37449482 0.096963301 1.5908164
0.380447 0.089417845 1.5883714
0.36627269 0.10648733 1.58808
0.37740701 0.094040729 1.5858306
-0.25026178 0.13560787 1.5935867
-0.23175246 0.12716517 1.5932
0.3566578 0.11525854 1.5850321
0.28928962 0.13806431 1.5896822
0.30674219 0.13905294 1.5942037
0.32710293 0.13286354 1.5863024
-0.78943837 -0.49760076 1.6666929
0.17379685 -0.46618962 1.6160587
0.17731853 -0.45301932 1.6089045
0.1777674 -0.29304755 1.608932
0.1904994 -0.29753914 1.6097389
0.14913031 -0.27016264 1.6010783
0.13705237 -0.24513595 1.6101319
0.13453922 -0.23627391 1.6136534
-0.82707548 -0.14344008 1.6199399
0.1512558 -0.14512227 1.6112341
-0.8278749 -0.13907497 1.6196855
0.17321377 -0.13945581 1.6058892
0.18928543 -0.13986567 1.6151108
0.20415881 -0.13955013 1.6123902
0.39571297 0.057032309 1.615409
0.40591168 0.052326247 1.6077288
0.42046538 0.046597105 1.6087296
0.37312996 0.091322988 1.6156096
0.38431707 0.073914036 1.6117508
0.39285049 0.064160593 1.6062168
0.39956972 0.058579609 1.6017547
0.29036656 0.13763748 1.6004635
0.36341533 0.10467709 1.6113939
0.37186107 0.096744396 1.6011163
0.37787479 0.08917933 1.5981996
0.28707334 0.13609223 1.6080741
0.3661291 0.10102444 1.613076
0.37392658 0.091061383 1.6082314
-0.24336742 0.13111353 1.6090571
-0.23961885 0.12988502 1.604923
0.34459692 0.12405505 1.6077718
0.35454226 0.11429721 1.6042589
-0.26437467 0.14188415 1.6158782
0.28784764 0.13554379 1.6139256
0.30885479 0.1399017 1.6073509
0.33246353 0.13478728 1.6165961
-0.79920787 -0.50139302 1.6668619
-0.78647649 -0.49870017 1.6698607
-0.83811373 -0.45746976 1.6566733
-0.83712029 -0.44917735 1.6544706
-0.82694423 -0.4461368 1.6532022
-0.83781427 -0.42921397 1.6477343
-0.82796818 -0.43170899 1.6444544
-0.81817633 -0.43414778 1.6421168
-0.7389223 -0.41973338 1.6386038
-0.7406168 -0.41851273 1.6354839
-0.736884 -0.41835272 1.6357001
0.1649965 -0.28537309 1.6266571
0.18381694 -0.29643691 1.6279209
0.15369202 -0.2735984 1.6240132
-0.84064478 -0.24338709 1.6248289
0.14117013 -0.24572536 1.6308405
-0.84763068 -0.23750125 1.6293949
0.13853793 -0.23696919 1.6325022
-0.8320471 -0.15464549 1.6345161
-0.82973731 -0.14636654 1.6299908
-0.82953733 -0.14292414 1.6275826
0.150481 -0.1529697 1.6354287
0.16902818 -0.14373751 1.6297071
0.18388607 -0.14485928 1.6359097
0.20696916 -0.14457473 1.6359845
-0.8270241 -0.12693202 1.6308703
-0.82713169 -0.13060482 1.6315777
-0.82923502 -0.13349833 1.6231883
-0.83225602 -0.10913035 1.6318542
-0.83209503 -0.11004277 1.6327031
-0.83644682 -0.088367239 1.6276174
-0.8355059 -0.092057578 1.6321273
-0.83882999 -0.076211274 1.6370276
0.38327387 0.064392723 1.6330903
0.39081404 0.057837278 1.627918
0.40587196 0.048966985 1.6253741
0.42450532 0.044865385 1.6242584
0.37993473 0.071272284 1.6335567
0.36716318 0.098000288 1.6293638
0.36074159 0.10698757 1.6286328
0.36474836 0.10222484 1.6319658
0.36849046 0.095776804 1.6266147
-0.26067346 0.13911152 1.619975
-0.2529656 0.13470492 1.6241328
0.34658223 0.123063 1.6196619
0.35655442 0.11260544 1.6271217
0.28744087 0.13496903 1.6213169
0.30010802 0.14159666 1.6328048
0.32434076 0.14104243 1.6288086
-0.83766162 -0.50797695 1.6702559
-0.79659414 -0.50387734 1.6710109
-0.83968943 -0.49999025 1.6694862
-0.83476031 -0.50231302 1.6678411
-0.84541547 -0.47539601 1.6692357
-0.78874725 -0.4788596 1.6599984
-0.77813333 -0.47479084 1.6643069
-0.84101617 -0.46726415 1.6612755
-0.82973868 -0.46524739 1.6529312
-0.80856526 -0.46668103 1.6489469
-0.7899276 -0.46735108 1.6529065
-0.77529705 -0.46386632 1.6591852
0.17715611 -0.47830331 1.6439468
0.18059306 -0.47034299 1.6440914
-0.8248347 -0.45267856 1.650969
-0.80864149 -0.44988462 1.6454835
-0.78979337 -0.45435232 1.6485955
-0.76979941 -0.4507603 1.6569691
-0.75505275 -0.44152924 1.6604213
-0.84712195 -0.42387703 1.6521696
-0.83976614 -0.42502102 1.6473191
-0.80979449 -0.43717965 1.6433934
-0.78840226 -0.43563679 1.6418593
-0.76819825 -0.43464309 1.648646
-0.75155228 -0.42826325 1.6486938
-0.73952854 -0.42609593 1.6525002
-0.7475301 -0.42048666 1.6382635
-0.73464471 -0.4195815 1.6394634
0.19462495 -0.30105597 1.6480263
0.20087193 -0.30298835 1.6560715
0.18567684 -0.29792431 1.6459233
0.14565744 -0.24743132 1.6521845
-0.85468042 -0.23098963 1.6470491
0.14183992 -0.2372061 1.6485271
-0.84076089 -0.16668549 1.6542795
-0.83623028 -0.15761426 1.645987
-0.83545345 -0.15268509 1.6455535
-0.8316142 -0.14713804 1.6353052
0.15527436 -0.15401371 1.6475703
0.17066222 -0.14869833 1.6463033
0.19400154 -0.14527114 1.6398983
-0.82958609 -0.12186693 1.6364876
-0.83196956 -0.11144596 1.6394787
-0.83909988 -0.084879696 1.6427778
-0.84334737 -0.066743053 1.646569
-0.84186894 -0.076793827 1.6487231
-0.84655833 -0.053504713 1.6527606
-0.84832346 -0.020714594 1.653772
-0.84930074 -0.010311963 1.6496466
-0.84609622 -0.011102204 1.6584406
-0.85384983 0.0096896263 1.6471634
-0.84876549 0.0057776077 1.6550939
-0.85402471 0.026401265 1.651953
0.38195917 0.065142959 1.6409699
0.38896647 0.054280773 1.6474074
0.4031471 0.047643624 1.6456913
0.3751626 0.081849173 1.6475754
0.36141926 0.10797185 1.6477897
0.36065599 0.10807937 1.6439865
0.36143228 0.10819072 1.6460791
-0.26260731 0.1400751 1.6547005
-0.25445232 0.13627112 1.6405977
-0.23611538 0.13192794 1.6542553
0.34904188 0.13020478 1.6565827
0.35576773 0.11605976 1.640031
-0.27171332 0.14645584 1.6540713
0.28701907 0.13472179 1.6468861
0.30861729 0.14395924 1.6486009
0.32271111 0.14216135 1.6469138
0.34065181 0.13382924 1.6408132
-0.83733571 -0.51493937 1.6757919
-0.8441208 -0.49534857 1.6725518
-0.83445334 -0.50598413 1.6697161
-0.8528989 -0.48987511 1.6781352
-0.84584683 -0.48715261 1.6704701
-0.83368218 -0.4924483 1.6614717
-0.8073082 -0.49323389 1.6592119
-0.79072887 -0.49161509 1.6687541
-0.77384979 -0.48264909 1.6736114
0.18378522 -0.4823449 1.6720554
-0.8417697 -0.47646055 1.6626962
-0.83015078 -0.47832751 1.6540192
-0.81052244 -0.47957796 1.6523502
-0.79766589 -0.48138809 1.6562849
-0.76525092 -0.46607381 1.6682397
-0.75806016 -0.46596223 1.6739773
0.18865687 -0.47585818 1.6758914
-0.78347218 -0.44995132 1.6490802
-0.77024376 -0.4504225 1.6566238
-0.75112772 -0.45083544 1.6693591
-0.74076307 -0.44504011 1.6744936
-0.86524451 -0.42046854 1.6705155
-0.85807085 -0.4228932 1.6596926
-0.78155953 -0.43956232 1.6462491
-0.77580988 -0.44312686 1.6497432
-0.73699301 -0.43535408 1.6674924
-0.86728626 -0.41661692 1.6738616
-0.86041957 -0.41738817 1.662348
-0.86185944 -0.38755885 1.6664919
0.18900855 -0.30037791 1.671874
0.2057457 -0.30447167 1.6640699
0.17183559 -0.29012248 1.6659681
0.16039418 -0.27859294 1.6598759
0.15042062 -0.25200093 1.6733617
-0.86229235 -0.22345492 1.6681243
-0.8595314 -0.22728856 1.6675326
0.14512055 -0.23555087 1.6661987
-0.8665747 -0.21741591 1.6744362
-0.85683113 -0.18826289 1.6765022
-0.8521179 -0.18151149 1.67299
-0.84565139 -0.16983062 1.6699238
-0.84098071 -0.15763523 1.6634336
0.16947785 -0.1550421 1.6681118
0.19054861 -0.15058035 1.6641527
0.20856583 -0.15111996 1.6639478
-0.84177667 -0.062012859 1.6619741
-0.84252542 -0.069146425 1.6661381
-0.84657282 -0.042533852 1.6548643
-0.84179366 -0.047674157 1.6666443
-0.84679413 -0.028988715 1.6550941
-0.84456718 -0.029718501 1.6628275
-0.84206158 -0.029798497 1.6697547
-0.842614 -0.0053409897 1.6692806
-0.84184974 0.0093607726 1.6707792
-0.8447119 0.030969245 1.6660885
-0.84048575 0.021613119 1.6722482
-0.85623306 0.050207976 1.6622036
-0.84799922 0.0486519 1.6699754
0.38090742 0.059202768 1.672156
0.38943955 0.051565766 1.6672162
0.40642807 0.044543665 1.6679087
-0.86276835 0.062084921 1.665342
-0.85474283 0.063798137 1.6726321
-0.84620708 0.063689366 1.6796894
0.37892133 0.066592053 1.6680939
0.36363581 0.11082399 1.6633477
0.36213338 0.11355945 1.6641017
-0.2588982 0.13589446 1.6743861
-0.24905051 0.13141049 1.662244
-0.24057451 0.12493733 1.6611558
0.28516084 0.13417147 1.6682073
0.35864604 0.11902394 1.6677532
-0.28171623 0.15557957 1.6671427
-0.27260071 0.14593026 1.6731067
0.30779621 0.14576592 1.6670915
0.33152103 0.1449655 1.6658998
0.34396219 0.13837212 1.6726179
-0.82815158 -0.52581054 1.7024497
-0.84196681 -0.52760911 1.6971601
-0.83841085 -0.52212745 1.6880171
-0.81848097 -0.52398908 1.6959752
-0.83312196 -0.51546896 1.6812977
-0.80307853 -0.51460481 1.6827888
-0.78895366 -0.51072055 1.6874118
-0.7768538 -0.50299406 1.6880934
-0.82519531 -0.50663143 1.6688846
-0.80795926 -0.50775689 1.6716118
-0.7658906 -0.49085805 1.6886126
-0.75591582 -0.48360983 1.692096
-0.74778223 -0.47152212 1.6879425
-0.73757499 -0.46468383 1.6946924
0.19363151 -0.47531685 1.6890516
-0.74240202 -0.45566779 1.6815048
-0.73543328 -0.45433041 1.6872586
-0.87210166 -0.42376709 1.6841866
-0.86790127 -0.43129939 1.6726164
-0.73136598 -0.44655374 1.6853895
-0.73400098 -0.44094566 1.6767991
-0.86968213 -0.41040275 1.6897596
-0.86727273 -0.3960408 1.6840172
0.19282374 -0.30269253 1.6889582
0.20219848 -0.30558577 1.68917
0.17428663 -0.29208252 1.6889502
0.15732467 -0.26263836 1.6972046
0.16173001 -0.27847663 1.6799221
0.15387684 -0.25045225 1.6979809
-0.86429447 -0.22312531 1.6903212
0.14931631 -0.23673414 1.689182
-0.87040502 -0.20973705 1.6898515
-0.86324942 -0.19136138 1.6902071
-0.84933633 -0.17156605 1.6891763
-0.84544903 -0.1628595 1.6820918
0.170417 -0.16149569 1.6916028
0.18946746 -0.15691607 1.6889124
0.20850439 -0.15800469 1.692838
-0.83711034 -0.05492248 1.6790464
-0.83466202 0.014431968 1.6870062
-0.83540809 0.032177113 1.6848063
-0.83432889 0.022102842 1.687041
-0.26471698 0.035539985 1.708672
-0.26608804 0.031568512 1.6987457
-0.83934265 0.050220039 1.6821915
-0.83298385 0.053466663 1.6936675
-0.2644245 0.04253393 1.7082136
-0.26312622 0.04349019 1.6985174
0.38824353 0.050992504 1.6832952
0.40348667 0.044644561 1.6929647
-0.84491354 0.061193567 1.6804411
-0.83737522 0.061932012 1.6883324
0.36715323 0.10944001 1.6842347
0.36412293 0.11453609 1.6863484
-0.26657772 0.13638146 1.6906725
-0.24868168 0.1232359 1.6733178
0.29058057 0.13488224 1.6927675
0.35965219 0.12257648 1.6921601
-0.27958995 0.14610621 1.6934431
0.29590502 0.13941476 1.6894581
0.31370708 0.14755975 1.6846353
0.33593565 0.14687046 1.6932573
0.34995395 0.13893202 1.6975017
-0.29323211 0.15374999 1.6926849
-0.84575987 -0.53800076 1.7179427
-0.83565629 -0.53523237 1.7153673
-0.84161139 -0.5342356 1.7103866
-0.82793862 -0.53239965 1.7108907
-0.80723953 -0.52849752 1.7126857
-0.79087818 -0.52355069 1.7122809
-0.83117437 -0.52629119 1.698069
-0.80727732 -0.52502787 1.6994257
-0.78356653 -0.51861942 1.7043797
-0.77022582 -0.51086754 1.706802
-0.76023126 -0.50099665 1.7044939
-0.74844438 -0.49200386 1.7081261
-0.7348665 -0.4862425 1.7166179
0.19236155 -0.49118644 1.7116628
-0.74281216 -0.47820228 1.701533
-0.72952229 -0.47050375 1.7094052
-0.71709561 -0.46433362 1.7183051
-0.53757411 -0.46949008 1.7517811
-0.72435671 -0.45706543 1.7031512
-0.71027398 -0.44882944 1.7115762
-0.69865519 -0.44046554 1.7178978
-0.87489426 -0.42526934 1.7152376
-0.72877914 -0.45014024 1.691277
-0.7193861 -0.44531474 1.698765
-0.70675391 -0.43504518 1.702245
-0.69535106 -0.43175822 1.7106261
-0.56304169 -0.43214816 1.7428774
-0.55528325 -0.43174356 1.7433761
-0.87259167 -0.41337994 1.7096125
-0.56325758 -0.42467317 1.7448512
-0.55823052 -0.42434743 1.7448833
0.19463094 -0.3045159 1.7187456
0.21154611 -0.30875036 1.7101172
0.16877455 -0.2851809 1.7007874
0.18250479 -0.29772013 1.7099341
0.16284344 -0.2727271 1.7101634
0.15634453 -0.25713551 1.7015492
-0.87099099 -0.2110306 1.710783
-0.86756885 -0.19116524 1.7101756
-0.85457426 -0.1805581 1.7191375
-0.85149658 -0.17587921 1.7070401
-0.8458668 -0.16814211 1.6996808
0.17475055 -0.16560496 1.7123681
0.18961799 -0.16349974 1.7175479
0.20987861 -0.16240549 1.7197021
-0.27314955 -0.0027111587 1.7298582
-0.83071226 0.014220593 1.6992441
-0.27351314 0.00894327 1.7256864
-0.26598278 0.011968012 1.7159252
-0.2646167 0.018600933 1.7101115
-0.82825512 0.031589851 1.7086442
-0.27034765 0.02896511 1.7253547
-0.26474151 0.026354611 1.702518
-0.26409081 0.031051997 1.704561
-0.82740557 0.048349757 1.7050437
-0.82418358 0.047370128 1.7124395
-0.26630431 0.052515443 1.7253134
-0.26152557 0.053402223 1.7140287
-0.26314479 0.045274459 1.7052013
0.38169354 0.059051722 1.7009364
0.39167625 0.049365122 1.7099705
0.40051359 0.045038577 1.7075175
0.38087374 0.064192355 1.7057724
-0.27409607 0.12235682 1.7283516
-0.26696089 0.11954347 1.7197534
0.36806631 0.11858 1.712329
-0.31253603 0.14436239 1.7240336
-0.30039769 0.14270091 1.7216408
-0.28412849 0.13667938 1.7195698
-0.26790279 0.12801264 1.7099277
-0.26441652 0.12417065 1.7047049
0.36334026 0.12276209 1.7043428
-0.30349642 0.14486247 1.7186356
-0.29056385 0.14524949 1.707954
0.32975408 0.14975029 1.7055507
0.3488979 0.144633 1.7192709
-0.29348364 0.15070687 1.6969068
-0.84365755 -0.5407629 1.7307096
-0.83166027 -0.54027724 1.7325177
-0.80304408 -0.53472573 1.7352171
-0.83982247 -0.53947955 1.7243683
-0.82807058 -0.5377686 1.7251321
-0.81007141 -0.53376979 1.7257442
-0.78779835 -0.52805781 1.7299968
-0.77577531 -0.52539611 1.7335322
-0.76556039 -0.51674575 1.7241384
-0.74855161 -0.50769663 1.7284641
-0.73497808 -0.50133061 1.73331
-0.72399557 -0.49809313 1.7363796
0.19511206 -0.50091809 1.7359875
-0.72486663 -0.48910397 1.7291967
-0.53215307 -0.47723132 1.7578428
