# .PCD v0.7 - Point Cloud Data file format
VERSION 0.7
FIELDS x y z
SIZE 4 4 4
TYPE F F F
COUNT 1 1 1
WIDTH 1483
HEIGHT 1
VIEWPOINT 0 0 0 1 0 0 0
POINTS 1483
DATA ascii
-0.0087432833 0.18910451 1.0701427
0.009602611 0.18257545 1.07005
0.030665917 0.1808221 1.066375
0.050340969 0.18147519 1.0697334
0.070731528 0.18402296 1.0687779
0.089976445 0.18507074 1.0698262
0.11046386 0.18352102 1.0687647
0.12997644 0.18280385 1.0706668
0.15001398 0.18306042 1.0708182
0.16951309 0.18157472 1.0691667
0.18302347 0.18047509 1.0658001
0.21875383 0.18059029 1.0650001
0.23045632 0.18091817 1.0669376
0.25040668 0.18080194 1.0662501
0.26230803 0.18051058 1.067
0.31431505 0.18106434 1.0688572
0.33035076 0.18332478 1.0700002
0.34603217 0.18115348 1.0690001
0.41527003 0.18468054 1.0640001
0.42754576 0.18725459 1.0696667
0.44277048 0.1913304 1.0760001
0.53169286 0.19083491 1.0698388
0.4663201 0.20393138 1.069
0.48995647 0.20705469 1.065625
0.51305819 0.20846874 1.0698966
0.52613074 0.20744032 1.0666045
0.44949672 -0.06738089 1.0890002
0.45471796 -0.053627871 1.0892669
0.46573684 -0.043855276 1.0874285
0.45916319 -0.021972574 1.097
0.47113824 -0.033635937 1.0893683
0.48507077 -0.034551796 1.0828695
0.45627961 -0.0087977219 1.0960969
0.46820232 -0.012303068 1.0871334
0.48754218 -0.0099834977 1.0816896
0.43105283 0.017371912 1.0935501
0.45328072 0.011606583 1.0926777
0.4612371 0.0076408647 1.0836668
0.4168677 0.031700458 1.0886251
0.42922974 0.029928815 1.0870894
0.45016259 0.030242229 1.0924743
0.46782267 0.031714879 1.0909319
0.43452364 0.045818735 1.0842223
0.44820252 0.046991248 1.0952001
0.46900553 0.042102814 1.0971
0.45302734 0.066608652 1.0900501
0.46902007 0.063445225 1.0840002
0.48047322 0.071280196 1.0810001
0.42737731 0.099283509 1.095
0.45776033 0.085560411 1.0845001
0.46089697 0.093706109 1.0902144
0.43399236 0.10953227 1.0926001
0.45087957 0.11185677 1.0909055
0.46712551 0.11266696 1.0884739
0.49013114 0.11652377 1.0883334
0.51058161 0.11245445 1.0884547
0.52540851 0.11420876 1.0871725
0.45320374 0.12923448 1.0933332
0.46959519 0.12903696 1.0952502
0.48975927 0.12440579 1.0971177
0.51296377 0.12716059 1.0981668
0.52559966 0.12959626 1.0889831
0.27213645 0.15831231 1.0930001
0.28139484 0.15918137 1.0990001
0.45487356 0.14235766 1.0956666
0.46457052 0.14285094 1.0964546
0.51887447 0.1471201 1.097
0.52323711 0.15045848 1.0876429
-0.22183031 0.17737091 1.0915
-0.21058924 0.17880182 1.0896473
-0.19573042 0.17948005 1.0965
-0.0007501301 0.17988926 1.0990001
0.012507348 0.17932133 1.0903333
0.029977459 0.17917541 1.0868572
0.046615653 0.17957464 1.0924002
0.11565995 0.17978013 1.0983334
0.12955154 0.17931636 1.0955001
0.15040562 0.17956187 1.0970001
0.17086159 0.17930768 1.0902501
0.1901643 0.17650108 1.0907369
0.20961773 0.17571795 1.0892353
0.23022833 0.1781902 1.0901905
0.25034475 0.1775343 1.0911177
0.27173746 0.17140269 1.0930454
0.28842899 0.17549701 1.089579
0.30879492 0.17778206 1.0910002
0.32281059 0.17988926 1.0990001
0.35251889 0.17872851 1.0897144
0.36362949 0.17619328 1.0895001
0.38493425 0.17730077 1.0990001
0.52759773 0.17016898 1.0889838
-0.20025486 0.18031923 1.0860001
-0.1885066 0.18289165 1.0881335
-0.17002197 0.18567555 1.0907779
-0.15162194 0.18409774 1.089889
-0.13655922 0.18321387 1.0880001
-0.10151599 0.18472943 1.097
-0.089485787 0.18388745 1.092
-0.067748733 0.18430714 1.0903637
-0.050689075 0.18527725 1.0915716
-0.029137805 0.18625915 1.0899999
-0.010681975 0.18497047 1.0898697
0.0048889378 0.18092902 1.0866001
0.053056698 0.18058489 1.0876001
0.070453204 0.18215303 1.0898668
0.0905267 0.18253416 1.0916252
0.11022042 0.1819976 1.0889336
0.1300137 0.18074618 1.0885715
0.150162 0.18112732 1.0878001
0.16325919 0.18065131 1.0879999
0.31899208 0.18031923 1.0860001
0.33213538 0.18212399 1.0897694
0.34242964 0.18054062 1.0873333
0.42878452 0.18594363 1.092
0.4434613 0.19072615 1.0870001
0.52594024 0.18946952 1.0885715
0.47261953 0.20548217 1.0883335
0.49641812 0.2083118 1.08525
0.51420695 0.20443557 1.0884376
0.52212399 0.20059715 1.0990001
0.45142585 -0.068476252 1.1101052
0.45592138 -0.051465999 1.1104783
0.4617078 -0.042050514 1.107
0.45342955 -0.022826241 1.1104445
0.46357307 -0.034213468 1.1084001
0.41942623 -0.0013237444 1.115
0.43046257 -0.0078286743 1.1140456
0.44725636 -0.0110484 1.109069
0.41866684 0.01569281 1.1118335
0.42948091 0.0079552289 1.1073653
0.44597927 0.005616453 1.1036668
0.41574353 0.024565082 1.1073847
0.45516333 0.053692728 1.1007144
0.46878499 0.045673057 1.102
0.45161879 0.066124082 1.105
0.43167061 0.097675912 1.1060001
0.46274117 0.091745101 1.1109287
0.43699375 0.10700226 1.1062858
0.45061371 0.10509165 1.1088333
0.46074149 0.10037155 1.107
0.44742721 0.13104454 1.1071199
0.47786647 0.13662666 1.1008
0.49137193 0.13405997 1.1039705
0.50788754 0.13514225 1.1030742
0.2661058 0.1593262 1.1
0.28475851 0.15961589 1.102
0.45114782 0.14998303 1.1104101
0.47138038 0.15202941 1.1081538
0.49073982 0.15067311 1.1113335
0.51050758 0.1505928 1.1084152
0.52000821 0.15803078 1.1
-0.2233797 0.17479368 1.1094
-0.20959468 0.176039 1.10905
-0.19610986 0.17797427 1.1101429
-0.0054237992 0.17840776 1.113111
0.0096877869 0.1776135 1.1090715
0.029274091 0.17754193 1.1086251
0.049670458 0.17804202 1.1112001
0.070003785 0.17951326 1.1127142
0.090819165 0.17846628 1.1132144
0.11092493 0.1773167 1.1099446
0.12975068 0.17617251 1.1082609
0.15003015 0.17640682 1.1104349
0.16918138 0.17687131 1.1083158
0.19036068 0.17474897 1.1102501
0.21021867 0.17381564 1.1098572
0.230823 0.17530522 1.1109999
0.25107554 0.17475247 1.1093334
0.26609311 0.1692424 1.1065557
0.29023427 0.1687147 1.107138
0.30925447 0.17538889 1.1110588
0.32449245 0.17878996 1.1136667
0.35306779 0.17671587 1.1092858
0.36296356 0.17594278 1.115
0.38721639 0.17955936 1.113
0.49154687 0.1644067 1.1177621
0.5136227 0.16763605 1.113674
0.52114427 0.17153624 1.1030588
-0.18602693 0.18238567 1.1095001
-0.17097704 0.18545093 1.1090833
-0.14965494 0.18413813 1.1090001
-0.1356626 0.18408279 1.1086668
-0.10159571 0.18463627 1.112
-0.089725569 0.18314441 1.1109287
-0.069960006 0.18411739 1.108875
-0.048037544 0.18356913 1.1104616
-0.029480679 0.1830494 1.1089547
-0.013445191 0.18150617 1.1077859
0.058838531 0.18005294 1.1
0.070775874 0.18074861 1.1042501
0.090182193 0.18056738 1.103143
0.1056252 0.18031482 1.1016001
0.33342347 0.18119588 1.1102
0.34368837 0.18057148 1.1095999
0.43528956 0.18564641 1.11025
0.44964886 0.18983552 1.1118462
0.46074149 0.1968427 1.107
0.51897967 0.18110974 1.1145
0.52316004 0.18946658 1.1080346
0.46819142 0.2033705 1.1
0.48809895 0.20931058 1.1040001
0.51214582 0.20781103 1.1071001
0.52257925 0.20279159 1.1110001
-0.48304158 -0.36572731 1.1375333
0.44912586 -0.081689492 1.1370001
0.45065379 -0.069199115 1.1321481
0.45352423 -0.04964941 1.129872
0.46087632 -0.040898889 1.12
0.43465623 -0.022717681 1.1342001
0.45123452 -0.029325901 1.1310587
0.46147791 -0.036104318 1.1257777
0.43320698 -0.018813424 1.1242001
0.44187939 -0.019830661 1.1220001
0.41735017 0.018454924 1.12
0.42130709 0.014498003 1.12
-0.45737296 0.033463974 1.1370001
0.45146868 0.073252328 1.1265557
0.46064666 0.079128705 1.1390001
0.43791541 0.096446291 1.1220001
0.45358217 0.09922979 1.1303334
0.46522957 0.091934033 1.1292142
0.44636756 0.10155026 1.12
0.44672233 0.13033339 1.1280001
0.44869724 0.15179192 1.125875
0.46302068 0.15987009 1.1220001
-0.22512048 0.17298502 1.131
-0.20942587 0.17356485 1.1309334
-0.1945205 0.17723945 1.13
-0.028005062 0.17800298 1.1317145
-0.01083272 0.17577569 1.1297827
0.0093375035 0.17531234 1.1296002
0.029825622 0.17558362 1.1296252
0.050513562 0.17593803 1.1302
0.070140153 0.17679529 1.1296523
0.089471929 0.17601351 1.1288824
0.10891603 0.17493007 1.1273848
0.13108148 0.17332335 1.131
0.14966807 0.17305727 1.1305002
0.17046882 0.17456186 1.1273333
0.18783386 0.1742743 1.1263
0.20985037 0.17315486 1.1321112
0.23048411 0.17409709 1.1285715
0.25040919 0.17348805 1.1265556
0.26364991 0.17007323 1.1283334
0.298908 0.16764614 1.1210001
0.31019336 0.17095804 1.1295882
0.3272945 0.17679901 1.1306001
0.3521848 0.1771303 1.131
0.36655796 0.17601287 1.128125
0.44970977 0.16960804 1.128
0.4708893 0.17044477 1.1291569
0.48803911 0.1736227 1.1236925
0.50785869 0.17494774 1.1224002
-0.18436521 0.18192248 1.12975
-0.17019925 0.18543407 1.1328751
-0.1493955 0.18442567 1.1267143
-0.13470425 0.18524992 1.13175
-0.10871078 0.1838159 1.1307058
-0.091794811 0.1815979 1.1311667
-0.071098797 0.18447243 1.127
-0.049910616 0.18208505 1.1298002
-0.034679357 0.18089707 1.1246002
0.33682689 0.18071336 1.1256667
0.34261543 0.18064386 1.1280001
0.37816307 0.18011738 1.133
0.38217616 0.18075329 1.1370001
0.45071307 0.18451564 1.1288573
0.46809322 0.18660916 1.1334686
0.48912022 0.18370014 1.1386667
0.5128969 0.1841372 1.1306502
0.5231998 0.19311596 1.127643
0.49185055 0.21111038 1.1275001
0.51188517 0.21199977 1.1322501
0.52543819 0.20452459 1.1278
0.43855113 -0.081622541 1.155
0.44361112 -0.082407959 1.1470001
0.4378663 -0.069594324 1.1559414
0.44455194 -0.069982201 1.1464634
0.43870741 -0.057336971 1.159
0.44616279 -0.049830362 1.1504544
0.43774921 -0.029493 1.15025
0.44681165 -0.034924924 1.1494849
-0.46799958 -0.0029671837 1.1583334
-0.4505631 -0.0027381203 1.1573333
-0.43822607 -0.001365297 1.1500001
-0.46752909 0.0061003896 1.1585654
-0.45158851 0.0086733894 1.1539445
-0.436703 0.0026870521 1.1460001
-0.4834336 0.029204858 1.1570001
-0.46884975 0.027097289 1.1516253
-0.45637438 0.023795705 1.1526364
0.45314127 0.077985838 1.1458
0.46007788 0.079962365 1.151
0.45443204 0.090742126 1.1522633
0.46600637 0.090170376 1.1515714
0.45021683 0.13285391 1.1495714
0.45011106 0.15298527 1.1463333
-0.22686477 0.17213508 1.151
-0.20912737 0.17269534 1.1525
-0.19322242 0.17673619 1.1492
-0.10832145 0.17904295 1.1533335
-0.095503047 0.17995472 1.149
-0.044904705 0.17896716 1.1501428
-0.02993677 0.17481712 1.1498234
-0.0098096356 0.1703961 1.1495187
0.0097162453 0.17105645 1.1506667
0.028712656 0.17279615 1.1504446
0.049957033 0.17325467 1.1500667
0.069777243 0.17368014 1.1522858
0.089936987 0.17331555 1.1498752
0.10997824 0.17288193 1.147
0.13034187 0.17184956 1.1505386
0.14994316 0.17109099 1.1531429
0.16851379 0.17277066 1.1501429
0.19030729 0.17383435 1.1463335
0.2116313 0.17315933 1.1501428
0.23117897 0.173493 1.1503848
0.24942331 0.17325525 1.1495
0.26559728 0.1697308 1.1494001
0.31650832 0.16875467 1.1465
0.32966796 0.17456128 1.1491818
0.34842566 0.17853852 1.1510001
0.37840822 0.17875117 1.1500001
0.44728258 0.1754408 1.1460001
-0.18411858 0.18196614 1.1503334
-0.17043728 0.18593186 1.1525002
-0.15055184 0.18482946 1.1456667
-0.12691113 0.18454325 1.1508825
-0.11627317 0.18301074 1.1470001
-0.089383863 0.18163268 1.1498573
-0.070049554 0.18451789 1.1488001
-0.054369915 0.18157282 1.1489999
0.38867512 0.18206899 1.151
0.44603461 0.18644829 1.1515
0.47690141 0.19258787 1.1436667
0.48849517 0.19093968 1.1511538
0.51138932 0.18931919 1.1500001
0.52318954 0.19546799 1.14675
0.4906829 0.20829254 1.156
0.51036507 0.21386275 1.1422001
0.52836198 0.20699759 1.1501666
0.43439218 -0.082939759 1.1628889
0.43230885 -0.069799021 1.1664839
0.43307975 -0.050995458 1.1673619
0.44219896 -0.045130596 1.161
-0.46542245 -0.02669639 1.1704643
-0.45679703 -0.027145872 1.1762941
0.43674865 -0.038561489 1.1631429
-0.48496339 -0.0071791704 1.1728181
-0.46853957 -0.011322386 1.1634688
-0.45269662 -0.012160968 1.1686363
-0.50064862 0.018038647 1.179
-0.48806867 0.010418244 1.16825
-0.47338769 0.012518203 1.1614398
-0.50219595 0.029723383 1.1745001
-0.49183831 0.025471274 1.1665002
-0.47659802 0.020497762 1.161
0.45652363 0.09035781 1.1626667
0.46427456 0.090266556 1.1615
0.45860124 0.13974698 1.1750001
-0.0021931899 0.15966108 1.179
0.0089016855 0.15939026 1.177
0.45783147 0.14947471 1.1688
-0.22976722 0.17171903 1.1692858
-0.20887218 0.1722867 1.1681252
-0.19356225 0.17567801 1.1692002
-0.12542717 0.17781332 1.1706001
-0.11120009 0.17624649 1.1699334
-0.09796688 0.17920399 1.1676668
-0.048382331 0.17739293 1.1694547
-0.02957369 0.17030224 1.1692001
-0.0093024485 0.16428187 1.1668094
0.010881905 0.16408269 1.1660832
0.028936638 0.16749261 1.1699584
0.049755257 0.16955411 1.1698694
0.069633618 0.17030783 1.1699375
0.090100065 0.17076349 1.1695
0.10992654 0.17056786 1.1675334
0.12896152 0.17008696 1.1680001
0.15078402 0.16948584 1.1701429
0.1710086 0.17117094 1.1697272
0.19101354 0.17362842 1.1684
0.21069516 0.17241712 1.1713333
0.22954914 0.17266499 1.1688889
0.24564855 0.17305498 1.1756667
0.26876771 0.17031068 1.171
0.31641126 0.16542704 1.161
0.33044124 0.17179 1.1671251
0.34975165 0.17698643 1.1673751
0.3634229 0.17661829 1.1626667
-0.18401621 0.18319513 1.16975
-0.17083138 0.18661545 1.1738751
-0.14813772 0.18511577 1.1666251
-0.13435042 0.18309404 1.1691
-0.087900274 0.18228306 1.1714287
-0.069172353 0.18393062 1.1696365
-0.057617839 0.18098815 1.1673334
0.39427674 0.18371357 1.1730001
0.4001627 0.18536352 1.166
0.45283905 0.18595035 1.1696668
0.49518341 0.19580273 1.166
0.51175326 0.19426657 1.1700001
0.52303112 0.1972867 1.1675
0.4968065 0.20374544 1.177
0.51489973 0.21705179 1.174
0.52983981 0.21091603 1.1706001
-0.48485899 -0.025875559 1.1918572
-0.47686678 -0.027852245 1.1820002
-0.45184132 -0.024474747 1.1840909
-0.50340849 -0.004234096 1.1943334
-0.49313447 -0.011345219 1.1882728
-0.44872823 -0.017205471 1.1836667
-0.5071528 0.010679515 1.1910001
-0.49913859 0.011123429 1.1820002
-0.52115637 0.027687401 1.1963334
-0.51133358 0.026128229 1.1862859
-0.087251425 0.11685589 1.1956153
-0.078728981 0.11873741 1.1956668
-0.088277295 0.12355707 1.1978
-0.076993853 0.1255424 1.1978889
0.46048906 0.13837843 1.187
-0.0061930642 0.15735444 1.194091
0.011230646 0.15471275 1.1901109
0.028091222 0.15694636 1.1950001
0.46367511 0.14689168 1.188
-0.23040965 0.17124519 1.1887779
-0.20964439 0.17097302 1.1901429
-0.19431122 0.17527263 1.1907145
-0.1295225 0.17531908 1.1897143
-0.10982352 0.17322807 1.1899474
-0.095873676 0.17788063 1.1921428
-0.064252585 0.1783085 1.197
-0.049465768 0.17458615 1.190647
-0.030302692 0.16604455 1.1897619
-0.013178299 0.16134574 1.1855716
0.031994116 0.16275384 1.1867334
0.049695048 0.16412103 1.1912858
0.070476525 0.16650765 1.1892999
0.089046188 0.16743143 1.1901766
0.11113349 0.16735424 1.189889
0.12945038 0.16732311 1.187875
0.15014409 0.16770709 1.1868571
0.16925855 0.1689028 1.189
0.18971972 0.17228957 1.1895001
0.21057397 0.17221715 1.1890001
0.23016568 0.17216885 1.1886667
0.24971834 0.1734927 1.1895715
0.27206191 0.17136455 1.1870002
0.3342253 0.17113279 1.1854001
0.3508642 0.17682548 1.1904286
0.36528698 0.17881508 1.1956667
-0.18470402 0.18387865 1.192
-0.16994222 0.18742765 1.1967143
-0.14804481 0.18408518 1.1888334
-0.13803427 0.18061854 1.189
-0.086729802 0.18200992 1.1912501
-0.071546964 0.18250187 1.1900769
0.38069078 0.18092237 1.1910001
0.45949632 0.19343367 1.199
0.50770044 0.19921142 1.1830001
0.52390718 0.1995482 1.1850001
0.5105055 0.21123128 1.1906668
0.53471178 0.20973915 1.191
0.0053852592 -0.042577203 1.2183334
-0.50039798 -0.024354339 1.2155001
-0.4937245 -0.027024591 1.2073334
-0.00083203689 -0.031594008 1.2190001
0.0091033373 -0.029567797 1.2177558
0.052502792 -0.02865578 1.2144597
0.065894224 -0.027845435 1.2147729
-0.52050531 -0.0043183379 1.2190001
-0.51034886 -0.0092220167 1.2110001
-0.49909097 -0.015582445 1.202
-0.0048976834 -0.0043157754 1.2178333
0.011123641 -0.0095476089 1.2160436
0.029532991 -0.0087015918 1.2179725
0.051443689 -0.010259286 1.2182196
0.069912761 -0.0083136102 1.2177577
0.090671949 -0.0057369857 1.2140357
0.11110797 -0.0068210568 1.2139089
0.13033733 -0.0066370713 1.2155312
0.14916767 -0.003552072 1.2184666
0.17121466 -0.0045846319 1.2164762
0.18430537 -0.0033609017 1.2186667
-0.52465731 0.01125071 1.2131112
-0.51649398 0.0082956608 1.2048572
-0.0069856206 0.0090046423 1.2159413
0.010580821 0.0099767409 1.2109179
0.030106511 0.0093111135 1.2157338
0.049804136 0.0035119979 1.219
0.072404392 0.0062386356 1.21775
0.090574108 0.0099935215 1.2128165
0.11025361 0.0099585168 1.209306
0.13035524 0.0099674892 1.2107345
0.150714 0.00998988 1.2139392
0.1696856 0.0093278829 1.2157383
0.1836973 0.0042946972 1.2187144
-0.53089613 0.027073551 1.2106001
-0.00083203689 0.022957332 1.2190001
0.011438804 0.023895476 1.2179443
0.024023004 0.023408584 1.2175001
0.095803104 0.028696431 1.216087
0.11046118 0.029960578 1.2115307
0.13060687 0.029865274 1.2147712
0.15058053 0.027275892 1.2155147
0.16791311 0.026964586 1.217091
0.098939486 0.043772973 1.2190001
0.11085802 0.05010527 1.2159387
0.12648524 0.04923686 1.218125
0.11047987 0.062785611 1.2119286
0.12341161 0.063826941 1.2154
-0.10781308 0.11806484 1.2080001
-0.097077243 0.11747843 1.202
-0.068104371 0.11736525 1.2155001
0.032091971 0.11453847 1.2175926
0.048534025 0.11512251 1.2165909
0.062332671 0.11913995 1.2190001
-0.10703701 0.12589188 1.2120801
-0.090313077 0.12998278 1.2073158
-0.068077609 0.13030025 1.208195
-0.055186078 0.13457081 1.2147692
0.018185202 0.1338259 1.21875
0.030643875 0.13020422 1.2150819
0.050583363 0.12994111 1.212613
0.064623542 0.13199177 1.2175882
-0.064571723 0.14770485 1.2143333
-0.052500032 0.1515004 1.2167881
-0.028374193 0.15842125 1.2147501
-0.0091292514 0.15357898 1.2117727
0.01102468 0.14657719 1.2113078
0.031260017 0.14800446 1.2089267
0.050234083 0.15013847 1.2107649
0.067123704 0.15218276 1.2171113
0.082430534 0.15933567 1.2190001
0.12262626 0.15933567 1.2190001
0.47212735 0.15907425 1.217
-0.24354534 0.16892892 1.2123333
-0.22848015 0.1708605 1.2112
-0.21281041 0.1704348 1.2162501
-0.19608127 0.17529622 1.21025
-0.14196946 0.17783862 1.2146667
-0.12816866 0.17112753 1.2110714
-0.10869619 0.16932911 1.2108235
-0.089369126 0.17418893 1.2115172
-0.069483899 0.17452404 1.2144799
-0.050314527 0.16755851 1.2125883
-0.031560086 0.16178972 1.206182
0.053077787 0.16026405 1.2044001
0.070271663 0.16206625 1.2072859
0.091321677 0.16337471 1.2099998
0.10938291 0.16338949 1.2101111
0.1300485 0.16397764 1.209625
0.1490799 0.16557096 1.2104168
0.16887757 0.16671325 1.210091
0.18705802 0.17169209 1.2116667
0.21038733 0.17301957 1.2142859
0.23034593 0.17265315 1.2117141
0.25031018 0.17408086 1.21175
0.26710564 0.1748243 1.207
0.28235704 0.17162277 1.2145
0.33947343 0.171554 1.2040001
0.34893477 0.1748663 1.2073334
0.36359233 0.17862394 1.2135
0.46941176 0.16100919 1.21
-0.1847963 0.18467417 1.2110001
-0.17042235 0.18761496 1.2162001
-0.15210675 0.18338728 1.2093334
-0.083150215 0.18026078 1.2053335
-0.075261377 0.18076915 1.2040001
0.46347713 0.18542442 1.202
0.51515466 0.21178539 1.2070001
0.53080839 0.20938624 1.2077779
0.54131031 0.21575911 1.2102001
0.53140992 0.22155732 1.2138333
-0.0074501741 -0.043363497 1.2308183
0.014692333 -0.043690652 1.226
0.0310771 -0.042077277 1.2317144
0.051888719 -0.043298263 1.2282307
0.066339105 -0.043020118 1.2310001
-0.5090183 -0.027907155 1.2321111
-0.021273293 -0.021898564 1.2390001
-0.0095514888 -0.029862735 1.2296584
0.018586379 -0.033099074 1.2215002
0.030903539 -0.030319598 1.2249388
0.045254078 -0.034584802 1.2230833
0.07362631 -0.031312026 1.2263889
0.088334396 -0.024351789 1.2336876
0.10962876 -0.023273598 1.2343572
0.12843706 -0.022880685 1.2346364
0.18300276 -0.021898562 1.2390001
-0.5273068 -0.007575511 1.2329
-0.51598799 -0.01665584 1.22875
-0.02117886 -0.014547588 1.2335001
-0.010978982 -0.011985818 1.2246217
0.0030010429 -0.017745979 1.2210001
0.034119032 -0.013837796 1.221
0.047696289 -0.008998652 1.2210001
0.073047727 -0.013673797 1.221125
0.090930291 -0.01571802 1.22325
0.10880198 -0.016847074 1.225
0.12994835 -0.016792784 1.2254376
0.15055548 -0.013591764 1.2269678
0.16853003 -0.013923489 1.2266896
0.19018267 -0.010589596 1.2298824
0.21064846 -0.0042277882 1.2326
0.23022263 -0.0050690928 1.2336191
0.2403933 -0.0014650231 1.2340001
-0.54523283 0.015165803 1.2360002
-0.53407305 0.0091306986 1.2270836
-0.010898819 0.018681245 1.2210001
0.037287537 0.017969936 1.2215
0.05130282 0.011968101 1.2226318
0.069076516 0.015138735 1.2222382
0.17746828 0.017243329 1.2210001
0.19043033 0.010690126 1.2271428
0.21054621 0.0090180654 1.2326274
0.22803383 0.0090039326 1.2335999
0.24117254 0.0029052165 1.2380002
-0.54776275 0.028998408 1.2318573
-0.53949654 0.025913207 1.223
-0.0098547591 0.030568471 1.2238935
0.010218254 0.033834692 1.2220968
0.031861093 0.031247078 1.2255813
0.051113963 0.030223357 1.2296664
0.070523307 0.030206978 1.2291301
0.086123861 0.031937402 1.2253667
0.14957334 0.037650898 1.2221665
0.17086329 0.033963513 1.2220435
0.18537761 0.031085432 1.2319566
0.21704876 0.038411509 1.2390001
0.22276364 0.030629562 1.2390002
-0.0093673421 0.050564636 1.231083
0.010712937 0.050504159 1.2253876
0.031061204 0.050733376 1.231061
0.049980957 0.050810814 1.2329999
0.068949267 0.050874978 1.2345511
0.089653239 0.051183835 1.2297884
0.13466488 0.051733017 1.2240001
0.14916758 0.047725864 1.2302942
0.1702854 0.047618974 1.2296469
0.19045444 0.048619952 1.2321427
0.21016888 0.051123817 1.2350267
0.22187123 0.052616391 1.2382729
-0.0042451634 0.063583903 1.2366668
0.011108328 0.066710249 1.2344813
0.032666992 0.068183959 1.235387
0.051272769 0.070924185 1.2293875
0.070120923 0.070935614 1.2295476
0.087728016 0.06812951 1.2342812
0.10014778 0.064906523 1.225
0.1303186 0.063155718 1.2283334
0.21802151 0.062730081 1.2390001
0.22361785 0.064119339 1.2376667
-0.022221573 0.096670903 1.2376667
-0.011684826 0.097331949 1.2390002
0.012174129 0.095757879 1.2346957
0.032052059 0.092003584 1.2316135
0.049906645 0.090782739 1.229381
0.066879712 0.087422647 1.2354544
0.083120055 0.081328094 1.2378001
-0.12778735 0.11972636 1.225
-0.063882932 0.11508249 1.2279001
-0.055805057 0.11610423 1.2363752
-0.026634593 0.10970211 1.2380625
-0.009569644 0.10898972 1.2341834
0.010648862 0.11016174 1.2265399
0.029126788 0.10570257 1.2220908
0.0525566 0.10708805 1.2252308
0.064586006 0.11143782 1.2330002
-0.12434644 0.12619315 1.2317144
-0.1133846 0.13363618 1.2272666
-0.091041118 0.13721968 1.2223334
-0.061225906 0.12221126 1.2210001
-0.048865002 0.12831198 1.2294102
-0.029617023 0.12973699 1.2344041
-0.0091831032 0.12935938 1.2280194
0.0089479014 0.1300495 1.2243254
0.072974756 0.12899767 1.227926
0.081662647 0.13490467 1.2363335
-0.10520421 0.14239764 1.2357143
-0.087746345 0.14452642 1.2334167
-0.073871814 0.15254189 1.2278334
-0.043618411 0.14820677 1.2246666
-0.030000634 0.14902614 1.2303541
-0.011637097 0.14557277 1.224926
0.0042001433 0.14311934 1.2215002
0.075233296 0.14923275 1.2233002
0.087954909 0.1521176 1.2304168
0.11199445 0.15856133 1.2284617
0.12819701 0.15769815 1.2321538
0.47367916 0.15672126 1.2210001
-0.24421135 0.16791718 1.2272002
-0.23048265 0.17013407 1.2322501
-0.21101139 0.17160434 1.2350001
-0.19794255 0.17631774 1.2306668
-0.14502655 0.17627981 1.2314287
-0.12985097 0.1683827 1.2310001
-0.1098118 0.16571777 1.2314285
-0.090228766 0.16624211 1.2296363
-0.071032755 0.16551065 1.2246298
-0.058350071 0.16247292 1.2210001
0.10303304 0.16011992 1.225
0.13534836 0.16127025 1.2250001
0.14995769 0.16278951 1.2312144
0.1697614 0.16388287 1.2303125
0.18389155 0.16779034 1.2320002
0.25355697 0.17487867 1.2273334
0.27211216 0.17568611 1.233
0.28596655 0.17236161 1.23
0.35309929 0.17514649 1.2292501
0.36508331 0.17859018 1.233
-0.1868277 0.18453452 1.231143
-0.17037034 0.18729779 1.233
-0.15431827 0.18242231 1.2295001
0.37295946 0.1803903 1.2255001
0.38082662 0.18208309 1.2370001
0.53159982 0.21435341 1.2271111
0.54334009 0.21725616 1.2316
0.53437108 0.22250447 1.2350001
0.54370284 0.2219715 1.232
-0.02142782 -0.044103332 1.248
-0.011302322 -0.047285244 1.249889
0.030069895 -0.045633908 1.2496667
0.049278725 -0.047172043 1.25125
0.072637767 -0.044593234 1.248
-0.52258247 -0.028060485 1.25325
-0.51636738 -0.032851629 1.2483333
-0.025162602 -0.029041877 1.248737
-0.018406913 -0.035131317 1.2425001
0.077328674 -0.038612291 1.2446667
0.088574141 -0.03061142 1.2490002
0.11170457 -0.028818313 1.2478001
0.12836398 -0.028510125 1.2494546
0.14824474 -0.022784978 1.247375
0.1711625 -0.02270128 1.2472224
0.19136801 -0.023858991 1.2498001
0.20310147 -0.022181354 1.2550001
0.23432395 -0.022199029 1.256
-0.54217935 -0.0073976377 1.2525001
-0.53483468 -0.012159306 1.249125
0.19731064 -0.018070834 1.2433333
0.21003285 -0.014313569 1.2484
0.22939247 -0.015087038 1.2468147
-0.56616998 0.016823297 1.2540001
-0.55337924 0.012932298 1.2445
0.19685006 0.019025493 1.2435
0.20671523 0.018548539 1.2441667
0.2361223 0.01607972 1.2421
0.24276993 0.01320585 1.2462
-0.56518674 0.02945493 1.2511668
-0.5563848 0.027763125 1.2414001
0.19580171 0.030459238 1.2473125
0.21079697 0.030697193 1.247738
0.23060544 0.030776262 1.2447939
0.24249363 0.030525343 1.2529233
-0.018384691 0.059908401 1.2410001
0.15317918 0.056225434 1.2456667
0.17114525 0.05683504 1.2483333
0.18645929 0.05705893 1.2426001
0.20668165 0.042370763 1.2410001
0.2317698 0.049821854 1.2473215
0.2413359 0.047247306 1.2540001
-0.021341972 0.06000495 1.243
-0.0065913848 0.071738347 1.248
0.010279404 0.075864345 1.2437999
0.028168617 0.075341068 1.2424167
0.089764081 0.077446036 1.2410001
0.13588685 0.064938925 1.2440001
0.14345329 0.061338771 1.2503334
0.21275917 0.062859967 1.248875
0.23147599 0.060995355 1.2433333
-0.0091465693 0.088483945 1.246425
0.010372431 0.085406639 1.2434666
0.026540516 0.083085939 1.2419091
0.072487019 0.094551437 1.2453685
0.083501242 0.089410193 1.2445557
-0.047249265 0.11497417 1.2432308
-0.036805473 0.11341586 1.2412002
0.073009126 0.10874256 1.2486297
0.081996016 0.11292159 1.2563334
-0.13002589 0.1301665 1.2485385
-0.043229677 0.12129013 1.2410001
-0.037383802 0.12129013 1.2410001
0.078386873 0.12177881 1.2460001
0.085728154 0.13030215 1.2486875
-0.1230344 0.14729892 1.2550001
-0.11023216 0.15150173 1.2497813
-0.091612644 0.15253122 1.2491155
0.094930001 0.14793472 1.248
0.10870372 0.15527749 1.2467692
0.12932862 0.15517987 1.2491251
0.14402273 0.15869708 1.2502
0.17260274 0.15890345 1.2482224
0.18546604 0.15821342 1.2556667
-0.2461585 0.16543564 1.2493638
-0.23220481 0.16945654 1.2513334
-0.21101262 0.17194456 1.2480001
-0.14786229 0.17425139 1.2513751
-0.12926282 0.16491415 1.2494546
-0.10947262 0.16144945 1.2464286
-0.092690088 0.16191679 1.2487779
0.15498225 0.16082276 1.2484001
0.16742758 0.16094722 1.2463335
0.18846232 0.16528524 1.2480667
0.20572899 0.17558463 1.253
0.23473737 0.17522028 1.2504001
0.2504845 0.17488396 1.2480001
0.2704013 0.17739594 1.245
0.35976493 0.17586491 1.2550001
0.36697915 0.17801337 1.2493334
-0.1872384 0.18550473 1.2522001
-0.16740231 0.18642733 1.2515001
-0.15643226 0.18149729 1.2463334
0.3747932 0.18047313 1.2460001
0.3810626 0.18206641 1.2570001
0.53697383 0.22067009 1.2410001
0.54431301 0.22171199 1.24275
0.17409964 -0.28498754 1.2745715
0.17575482 -0.27991366 1.271
-0.52438629 -0.040282615 1.2665
-0.015935197 -0.052729953 1.279
0.029147301 -0.049530931 1.2742001
0.048251938 -0.04913443 1.2640002
0.070159651 -0.047692794 1.2651668
0.083996974 -0.041451093 1.2716666
-0.5322715 -0.029495152 1.2688183
0.092427187 -0.034045704 1.2685556
0.10950458 -0.032827023 1.2663751
0.12997584 -0.034168649 1.2698334
0.14845058 -0.027271599 1.2680001
0.17053065 -0.026424186 1.2692223
0.19133519 -0.03156114 1.2688422
0.21034496 -0.029817421 1.2705755
0.22619101 -0.026992949 1.2685263
-0.54586202 -0.015857005 1.2686001
-0.53504437 -0.019302035 1.2600001
0.21578141 -0.019302035 1.2600001
-0.58369941 0.019415643 1.2690001
-0.57659179 0.018353444 1.2643334
-0.58254987 0.027962387 1.2692858
-0.57613361 0.029013727 1.263875
0.2040031 0.027345214 1.2605716
0.24921465 0.037201814 1.2640001
0.15939528 0.057857923 1.2600001
0.16397569 0.057903841 1.2610002
0.24921465 0.040178925 1.2640001
-0.015698476 0.078631759 1.2600001
0.13961159 0.070226744 1.2690001
0.14972137 0.063883454 1.2691251
0.17260456 0.061308354 1.2700001
0.18929397 0.060894575 1.2614287
0.20983176 0.064247988 1.2688334
0.079267628 0.10682482 1.2600001
0.08668334 0.11269473 1.2670001
-0.14078702 0.12651518 1.2640001
-0.13540839 0.1345212 1.2693335
0.091378205 0.1285217 1.2666668
-0.25515017 0.15853851 1.2701668
-0.12724195 0.14996442 1.2693332
-0.11956765 0.15430787 1.2600001
0.096909672 0.14178225 1.2675
0.1088676 0.15091218 1.2689286
0.12955135 0.15346867 1.2681112
0.15148507 0.15791577 1.2706364
0.1649437 0.15783271 1.2685001
0.19406541 0.15920042 1.2635001
-0.24678993 0.16401029 1.2711428
-0.2336937 0.16863239 1.2673334
-0.20709555 0.17682886 1.2690001
-0.14836474 0.17111149 1.2702
-0.13372011 0.16322081 1.2691112
0.19542028 0.16504177 1.2626667
0.21612704 0.17684583 1.2620001
0.23081392 0.17331867 1.2690001
0.24690479 0.17012073 1.276
0.2653656 0.17796688 1.27
0.37006152 0.17796686 1.27
0.48796201 0.16392159 1.2655001
-0.18974961 0.18566987 1.273
-0.17095128 0.18618469 1.2694446
-0.15864968 0.18010318 1.2640001
0.37812579 0.18053065 1.2670001
0.48523813 0.19953205 1.274
0.48066762 0.20062502 1.2620001
0.17476669 -0.30091387 1.2970001
0.16977629 -0.28993127 1.288913
-0.53491026 -0.040743802 1.281
-0.0084369648 -0.053008236 1.28575
0.069231659 -0.051847447 1.2945001
0.087324105 -0.044106103 1.2911999
0.12751614 -0.041284509 1.2980001
0.19341363 -0.040998254 1.289
-0.54884112 -0.028364765 1.2895001
-0.53834736 -0.036247522 1.2820001
0.096352197 -0.037991706 1.2900001
0.11006056 -0.036943451 1.2885556
0.1356425 -0.037932806 1.2880001
0.15009855 -0.031503696 1.2885001
0.17087807 -0.029908681 1.2906667
0.18578582 -0.034921546 1.2886667
0.2163606 -0.037726648 1.281
0.14960989 0.06992054 1.2908334
0.16917135 0.064413317 1.2892858
0.18819392 0.065025292 1.2843333
0.20635791 0.06592904 1.2902001
0.096309356 0.11540199 1.2895
-0.14525892 0.13571668 1.295
-0.13988142 0.13748249 1.2830001
0.097346924 0.1293073 1.288125
0.10000139 0.12991828 1.2980001
-0.25694826 0.15599445 1.2912
-0.14113522 0.14329234 1.2945001
-0.13446893 0.15247849 1.289
0.10985875 0.14743091 1.2881
0.12873763 0.15165062 1.2911251
0.14965953 0.15609545 1.2911667
0.16652437 0.15675378 1.2924
-0.24692287 0.16384383 1.2923335
-0.23290467 0.16983645 1.28775
-0.21101625 0.17814448 1.2930001
-0.16153651 0.17882639 1.2870001
-0.14910278 0.16725644 1.2903848
-0.13685955 0.16165741 1.2830001
0.20674086 0.172668 1.2900001
0.23799425 0.16735303 1.2920001
0.25037214 0.16462231 1.2880458
0.26384833 0.17291804 1.2920001
0.37209153 0.17883337 1.2980001
-0.19374712 0.18626951 1.2930001
-0.16672748 0.1825701 1.2920001
0.27821568 0.18048924 1.2880001
0.28342474 0.18090962 1.291
0.38448858 0.18154167 1.2883333
0.48923737 0.19663432 1.2845001
0.16176569 -0.34238693 1.3155
0.13242723 -0.325919 1.3148421
0.15129721 -0.32919714 1.3113754
0.16534972 -0.33075339 1.3131877
0.13161875 -0.31251073 1.3147935
0.15003264 -0.31071588 1.3135481
0.16812919 -0.31039551 1.3121924
0.1801798 -0.30537489 1.3030001
0.15494554 -0.29414213 1.3119376
0.16575229 -0.287671 1.3071877
0.052775875 -0.053678185 1.302
0.069902472 -0.053870577 1.3066669
0.090152375 -0.046317928 1.3105001
0.11061265 -0.041833166 1.3152502
0.13120651 -0.04148595 1.3043336
0.1411445 -0.04169799 1.3110001
0.19011344 -0.041602571 1.3080001
-0.55551881 -0.029122895 1.3010001
0.10636104 -0.038315669 1.3010001
0.15162207 -0.035448339 1.3081667
0.17023657 -0.032904617 1.3091668
0.18391562 -0.036978208 1.3077501
0.15172589 0.073837504 1.3118
0.17033505 0.068379201 1.3098334
0.1887501 0.06936609 1.3091668
0.20899415 0.069445573 1.3106668
0.10243365 0.11718594 1.3095001
0.43282953 0.11841486 1.3060001
-0.1512133 0.13639916 1.3113335
0.10265179 0.13008085 1.3073752
-0.26331487 0.14971547 1.3108001
-0.25688422 0.15651432 1.3095001
-0.1457763 0.15131231 1.3110833
-0.13902853 0.15500855 1.3033334
0.11184254 0.14552917 1.3088572
0.13051295 0.15046644 1.3128333
0.15191674 0.15536571 1.3106667
0.16601409 0.15608053 1.3123335
0.25334045 0.15777104 1.3103751
0.2643398 0.15850659 1.3132501
-0.24656849 0.16530669 1.312
-0.22355779 0.17471494 1.3130001
-0.21737275 0.17780748 1.3130001
-0.16263193 0.17558999 1.3080001
-0.15299597 0.16517644 1.3078752
0.21485917 0.17566594 1.3085001
0.23378786 0.16983581 1.311125
0.24585859 0.16214167 1.3064001
0.26891392 0.17001463 1.3091429
0.3774609 0.17993557 1.3060001
0.50146037 0.16640547 1.3085001
-0.20390972 0.18301161 1.3060001
-0.18809947 0.18871349 1.3082501
-0.17293403 0.18432529 1.3045001
0.2183398 0.18062446 1.3110001
0.22356501 0.18110667 1.3145001
0.27700821 0.18062446 1.3110001
0.28159156 0.18158887 1.3180001
0.30119419 0.18124443 1.3155
0.38803157 0.18207097 1.3140001
0.49742624 0.19531575 1.3060001
0.49813545 0.20611003 1.3160001
0.13107829 -0.34414849 1.3343334
0.14955895 -0.34503677 1.3286667
0.16305631 -0.34824291 1.3260001
0.11614747 -0.32679403 1.3334546
0.12687531 -0.33292633 1.3251113
0.17329784 -0.32503057 1.3233334
0.18067889 -0.32561815 1.3292501
0.11581762 -0.3121143 1.3317858
0.12770498 -0.30486256 1.3270742
0.14383063 -0.30192867 1.3215001
0.17502284 -0.31839108 1.322
0.13730513 -0.29844084 1.3337501
0.14896102 -0.29270929 1.3298502
0.16782708 -0.283842 1.3297501
-0.013397635 -0.05779079 1.3260001
0.076882459 -0.054461509 1.3210001
0.091132142 -0.049167559 1.3292001
0.11274726 -0.042047858 1.322
0.1301565 -0.045264065 1.325
0.14617831 -0.043304872 1.3286668
0.18978699 -0.043256182 1.3273335
0.15575464 -0.038140871 1.3303334
0.16991009 -0.036059763 1.3308334
0.18234241 -0.039169744 1.3300002
0.15139532 0.077701539 1.3286668
0.16875388 0.072301671 1.3290001
0.18944214 0.073801726 1.3336002
0.20776771 0.070063733 1.3223333
0.15046655 0.080408089 1.3390001
0.10504354 0.11995625 1.3230001
0.44591871 0.11798827 1.3360001
0.1086297 0.13455117 1.3287501
0.43539178 0.13072163 1.3375001
0.44525117 0.12095362 1.3340001
-0.26247203 0.150355 1.3300002
-0.25904524 0.15644525 1.3285
-0.15276746 0.15141393 1.3280911
0.11509464 0.14451663 1.3312
0.13088976 0.14948486 1.3322858
0.15086968 0.15384834 1.3286667
0.16868351 0.15544549 1.3334001
0.25459027 0.15673022 1.3310001
0.26926169 0.1565735 1.3315716
-0.25072232 0.16460931 1.3313335
-0.23567267 0.17371379 1.3290001
-0.16582194 0.17311819 1.3305
-0.15706037 0.16316497 1.3260001
0.21694978 0.16519542 1.3276668
0.22722702 0.17210642 1.3287002
0.24359626 0.16143554 1.3310001
0.27648413 0.16718842 1.3270001
0.28136089 0.17404093 1.3316001
0.50999522 0.17265557 1.3390001
-0.20545268 0.18524028 1.3293334
-0.18733673 0.18903114 1.3303335
-0.17633128 0.18479788 1.3300002
0.29156998 0.18246515 1.3281667
0.30438948 0.18096732 1.3363334
0.37983811 0.18092217 1.3360001
0.39566803 0.18337998 1.3310001
0.4059211 0.18763594 1.3390001
0.44788051 0.20298362 1.3293334
0.49910501 0.21159422 1.3310001
0.50243211 0.20539857 1.3315001
0.056021176 -0.3452481 1.3525002
0.070161171 -0.34454525 1.355
0.086468779 -0.3431932 1.3575
0.114451 -0.3459442 1.3527857
0.12750246 -0.35386145 1.3501538
0.15005966 -0.35445842 1.3496667
0.01716212 -0.32827643 1.3553333
0.029864101 -0.33153102 1.3563637
0.052322477 -0.33286178 1.3545861
0.070789292 -0.32990748 1.3532858
0.089694381 -0.32928047 1.3548422
0.10730363 -0.33059844 1.3502758
0.058778625 -0.30866924 1.3579999
0.070893653 -0.30964053 1.3552498
0.087117985 -0.31238869 1.3567998
0.10971285 -0.30952463 1.350207
0.058778625 -0.29800758 1.3580002
0.069683477 -0.29746401 1.3564999
0.082234375 -0.29907376 1.358
0.13093904 -0.29763505 1.3490834
0.14873047 -0.29009548 1.3490001
0.16632438 -0.28476951 1.3483334
0.075324774 -0.058778662 1.3486668
0.090991706 -0.052298978 1.3455001
0.11148684 -0.045924518 1.3443333
0.13406533 -0.049242996 1.3485
0.14878277 -0.046841204 1.3524001
0.18850377 -0.044585105 1.3517501
0.17073135 -0.039751403 1.34975
0.16880502 0.076134689 1.347
0.18431252 0.078235149 1.3559999
0.21364917 0.074875325 1.353
0.15694048 0.081308842 1.3540001
0.45570302 0.11931297 1.3510001
-0.20582139 0.13341139 1.34875
-0.19737116 0.13169882 1.3540001
0.11276306 0.13176411 1.3482001
0.43389887 0.13059784 1.3525
0.45218131 0.12399417 1.35
-0.26265559 0.15386543 1.3470001
-0.16405097 0.1519163 1.358
-0.15917049 0.15349284 1.3437999
0.11668306 0.14301272 1.3495001
0.12658988 0.14757574 1.3534
0.14972226 0.15221299 1.3465
0.1696844 0.15463887 1.3538333
0.25352806 0.15741977 1.3504001
0.2701188 0.15435399 1.3478751
0.28341383 0.15859132 1.3513333
-0.25080889 0.1668912 1.3498
-0.23121969 0.17750438 1.358
-0.16814619 0.16844386 1.3508888
0.23096548 0.16780426 1.3486667
0.24364555 0.16196826 1.3485
0.28928244 0.17032075 1.35025
0.34534341 0.17072937 1.355
0.51258558 0.16690084 1.35
-0.22802119 0.18070288 1.358
-0.20647933 0.18701325 1.3496667
-0.18665139 0.18730576 1.35375
-0.17560787 0.18101917 1.3485
0.29540125 0.1817735 1.3470001
0.30590236 0.18056981 1.357
0.37838313 0.18173467 1.342
0.39126772 0.18258107 1.34825
0.40848249 0.18709992 1.358
0.51289779 0.19945236 1.355
0.45325166 0.20325214 1.3485
0.46880445 0.2087191 1.3529999
0.4954527 0.21321097 1.3492
0.50557959 0.20778221 1.3515557
0.094324164 -0.36461982 1.375
0.11038911 -0.36627215 1.3700557
0.12843342 -0.36676827 1.368875
0.14877988 -0.3622303 1.3670001
0.055555493 -0.35670185 1.3705001
0.076236673 -0.35215154 1.3653334
0.094363131 -0.35031319 1.3654211
0.10724672 -0.35294804 1.3642858
-0.00093988091 -0.32596099 1.3770001
0.01079809 -0.32338697 1.3669411
0.030309338 -0.32435659 1.3634547
0.047567181 -0.32439527 1.3632631
0.012567031 -0.31285214 1.3739567
0.029484516 -0.30995047 1.3694053
0.048107296 -0.31019258 1.3634243
0.094207719 -0.30659455 1.3623002
0.10876597 -0.30222455 1.3675001
0.031400166 -0.29182759 1.3731003
0.049501885 -0.290952 1.3692824
0.070435219 -0.28903526 1.368543
0.089125998 -0.29452318 1.3701906
0.10262044 -0.29936129 1.3740001
0.12916467 -0.29767522 1.3681251
0.14902596 -0.29010445 1.3676667
0.1682858 -0.2853047 1.3686668
0.086628191 -0.06001351 1.3770001
0.091550983 -0.055486493 1.3655001
0.11067448 -0.050149828 1.3733335
0.12809914 -0.050820664 1.3695002
0.15594436 -0.046760496 1.3686666
0.1703711 -0.041040793 1.3659999
0.18648969 -0.045253914 1.3720001
0.1756355 0.078639016 1.363
0.2076503 0.079215974 1.3730001
0.15422092 0.085642047 1.3723335
0.16706879 0.082369745 1.3716668
0.19041258 0.082690023 1.3770002
-0.20467268 0.13311544 1.3668573
-0.19285421 0.13201666 1.3672001
0.11726391 0.13345765 1.3655001
0.31643683 0.1279103 1.375
0.32207039 0.12692158 1.376
0.43514246 0.13082731 1.3715
0.4483017 0.13202052 1.3673334
0.46771148 0.12647405 1.3770001
-0.26343036 0.15781567 1.3675001
-0.20794715 0.14392771 1.3733335
-0.19877885 0.14106873 1.3770001
-0.16857301 0.15064284 1.3720002
0.12761828 0.14575665 1.3703333
0.15028156 0.15097006 1.3660001
0.17017023 0.15332583 1.3706
0.25410604 0.15763408 1.3706669
0.26998219 0.15226452 1.3675556
0.29010591 0.15607513 1.3695556
0.35129547 0.15994541 1.3720001
0.50783807 0.15411405 1.3704377
-0.25255814 0.16827814 1.3696667
-0.17415312 0.16974723 1.3691428
0.235523 0.16711305 1.3690001
0.24824926 0.16017857 1.3740001
0.29706547 0.16827387 1.3653334
0.30790448 0.17213359 1.3696089
0.33141419 0.17088458 1.3709286
0.35058331 0.16574517 1.3704289
0.36191079 0.17169073 1.3755001
0.51130337 0.16960301 1.3708278
-0.22664379 0.18216661 1.3690001
-0.2155109 0.18552646 1.3700001
-0.18915315 0.18821214 1.3661667
0.30039528 0.18110208 1.3610001
0.41012514 0.1878518 1.3635001
0.51443082 0.19225751 1.3730457
0.4723995 0.20695123 1.3684286
0.49284786 0.20996329 1.3710954
0.50486112 0.20459849 1.36675
0.094920948 -0.38383418 1.3940001
0.109485 -0.38251194 1.3884618
0.12643692 -0.38333815 1.3918571
0.055657346 -0.36626986 1.3863335
0.068813384 -0.36856577 1.3940001
0.088451363 -0.3727563 1.3866875
0.10960023 -0.37554264 1.3804287
0.13491867 -0.37591624 1.3866
0.14928383 -0.37180287 1.3866668
-0.0064297435 -0.32147184 1.3856668
-0.020695742 -0.30272722 1.3970001
-0.0088945357 -0.30926579 1.3910261
0.0077945762 -0.30651128 1.3832107
-0.02316352 -0.29696906 1.3970001
-0.0098292315 -0.29674846 1.3952001
0.012462014 -0.29422039 1.3895003
0.025606839 -0.28494337 1.3848572
0.04943816 -0.28116658 1.3800001
0.068968043 -0.28126845 1.3805002
0.089377768 -0.28681362 1.3870001
0.10707508 -0.29770222 1.3897778
0.13009998 -0.2976476 1.3867501
0.1508989 -0.28997114 1.3895003
0.17036074 -0.28555042 1.3855
0.032376133 -0.27395505 1.3899544
0.049767271 -0.27320853 1.3892001
0.068523899 -0.27510339 1.3901306
0.080956474 -0.27848983 1.391
0.054864652 -0.064037718 1.3940001
0.077345163 -0.063624278 1.3850001
0.080956466 -0.063899904 1.391
0.097127713 -0.057223745 1.388
0.10389012 -0.054071195 1.391
0.13282426 -0.053850919 1.3853334
0.14905629 -0.05316316 1.3844001
0.16946502 -0.046132293 1.3914287
0.18508601 -0.046253085 1.3856667
0.21582983 0.079850622 1.3840001
0.22544488 0.079792924 1.383
0.41341078 0.065761335 1.39625
0.15517393 0.090374634 1.3955001
0.16981226 0.086195052 1.3876251
0.18686816 0.085516997 1.3898752
0.20381886 0.083530724 1.391
0.22649916 0.080167949 1.3895
-0.22045726 0.13595051 1.391
-0.21032336 0.12838998 1.3890001
-0.19201994 0.1344555 1.3868333
0.11960842 0.12759355 1.3833336
0.12483098 0.13591613 1.3906
0.31248081 0.1345509 1.3871253
0.33052 0.13007949 1.3901178
0.35224274 0.1298008 1.3938751
0.36626366 0.13483997 1.3943751
0.43665218 0.13258125 1.39
0.4422943 0.12639381 1.3940001
0.4723669 0.1297542 1.3878
-0.26689896 0.15922683 1.3940001
-0.20345254 0.14697015 1.38675
-0.19160268 0.14599746 1.3930001
-0.1756565 0.1523008 1.3907778
0.13235433 0.1450839 1.387889
0.15031168 0.14920312 1.388625
0.16943514 0.15070593 1.3911667
0.18491668 0.1547294 1.3905001
0.25446397 0.15717068 1.3903333
0.27228454 0.15105237 1.3893334
0.2916002 0.15033862 1.3878126
0.30998033 0.15062501 1.3908571
0.32762304 0.15293658 1.3937143
0.35164446 0.15526667 1.3914706
0.36504373 0.15064941 1.3946316
0.45281985 0.14250298 1.391
0.50177205 0.15721193 1.3878
-0.26197401 0.16415179 1.3940001
-0.24822564 0.17377053 1.3876667
-0.18254553 0.17057289 1.391
-0.17674093 0.1656864 1.3822
0.24542564 0.16151923 1.3855001
0.31208727 0.16417299 1.382357
0.33014828 0.1647117 1.3849443
0.3437334 0.16255358 1.3832
0.36836162 0.16910788 1.3888
0.49882507 0.16931932 1.396
0.5034681 0.1709042 1.387
-0.22797622 0.18293309 1.3870001
-0.20579146 0.19014035 1.386
-0.18964909 0.18596794 1.3853334
0.3919808 0.18422912 1.3845
0.41059983 0.18660681 1.3840001
0.42639038 0.19408198 1.3850001
0.49782062 0.19697797 1.3901668
0.50662726 0.18933097 1.3853438
0.46548015 0.20638265 1.3800001
0.49007767 0.20437281 1.3855335
0.088032126 -0.40217921 1.4170002
0.11076234 -0.4018954 1.4159999
0.12585685 -0.40217921 1.4170001
0.072582386 -0.38354611 1.411375
0.088237897 -0.39134276 1.4077142
0.10985369 -0.39362657 1.4043335
0.12900943 -0.39310148 1.4083637
0.14425769 -0.38421604 1.40925
0.070832409 -0.37574488 1.4037143
0.081654876 -0.37837866 1.4030001
0.15402383 -0.37756959 1.4000001
-0.023311399 -0.3236616 1.40575
-0.026196577 -0.3112734 1.4031363
-0.01744275 -0.31491834 1.4000001
-0.0059057157 -0.29333401 1.40325
0.0098529924 -0.28847596 1.4073684
0.094250545 -0.28491682 1.4077142
0.1089597 -0.29677233 1.4095556
0.13097751 -0.29796565 1.4082222
0.15013289 -0.2905682 1.409875
0.17067032 -0.28606251 1.408125
0.1814986 -0.28530455 1.4085001
0.017877216 -0.27324164 1.411889
0.028980687 -0.26551867 1.4062084
0.049585834 -0.26380071 1.402
0.071747594 -0.2658166 1.4057393
0.084887944 -0.27351326 1.4102308
0.033592895 -0.25693798 1.4143749
0.051175185 -0.25105795 1.4108459
0.068544731 -0.25005272 1.411375
0.053921219 -0.23019832 1.4106086
0.068194017 -0.2300269 1.4104075
0.057953149 -0.21735133 1.416
0.065060519 -0.217098 1.4158001
0.04707855 -0.064634919 1.4070001
0.095296435 -0.062535174 1.4093333
0.11109088 -0.055371016 1.4074001
0.12993914 -0.056352858 1.4070002
0.14958678 -0.057360128 1.4046668
0.17052281 -0.050197374 1.411
0.18676883 -0.049855672 1.4107499
0.41245684 0.07099472 1.4087501
0.15722926 0.094903119 1.414
0.1708905 0.093167514 1.4105453
0.1901039 0.092481695 1.4108334
0.20992979 0.085866556 1.4078
0.41955456 0.081754573 1.4170001
0.42361537 0.082576238 1.4120001
-0.21365701 0.12793519 1.411
0.13122584 0.13658763 1.4088334
0.19715221 0.13306794 1.4160999
0.20589523 0.12890776 1.4152352
0.31006885 0.13268982 1.4065555
0.33235481 0.12728874 1.404
0.34809956 0.12960626 1.4042308
0.36995924 0.12748607 1.4060835
0.38410583 0.13667983 1.4155
0.43787324 0.13628535 1.4115
0.44300872 0.12839238 1.4088
0.47545686 0.13618472 1.4046668
0.48423788 0.13458896 1.4110001
-0.20618944 0.15377159 1.4091668
-0.18921193 0.15244927 1.4047369
-0.17901702 0.14837116 1.4000001
0.13689362 0.14169617 1.4046668
0.14967592 0.14453121 1.4087334
0.1709172 0.14498271 1.4088
0.19078942 0.14788304 1.4111378
0.20261875 0.14349785 1.4170001
0.25304678 0.15687285 1.4097501
0.26738888 0.15205126 1.4066
0.29212719 0.14579633 1.4087778
0.30193827 0.14067808 1.4055002
0.33397821 0.14832287 1.4021667
0.34809914 0.14705193 1.4055184
0.37390578 0.15356547 1.4022501
0.38041076 0.15585154 1.4080001
0.50049728 0.15644228 1.4044001
-0.26240218 0.1665069 1.414
-0.25492573 0.17261839 1.4095001
-0.18968274 0.16856803 1.4074286
0.24452198 0.16170743 1.4085001
0.37575537 0.16686101 1.403
0.38189673 0.16977549 1.4135002
0.49907601 0.1687329 1.411091
0.50081414 0.17259078 1.4046668
-0.24075453 0.18149374 1.414
-0.2279781 0.18556142 1.4070001
-0.21057153 0.19003628 1.4082001
-0.19558458 0.18686135 1.4085001
0.38122126 0.18110867 1.411
0.41231433 0.18557473 1.4113334
0.42945465 0.19367354 1.4056667
0.49550739 0.19501945 1.408154
0.5020225 0.18487841 1.4059999
0.4723475 0.20735194 1.4086666
0.48646602 0.20414497 1.4066252
0.091531821 -0.42252299 1.4370002
0.10736308 -0.42379856 1.4375001
0.078544348 -0.4076874 1.4265
0.090608858 -0.41126445 1.4289999
0.10977111 -0.41323927 1.4321666
0.12933566 -0.40949592 1.4301249
0.14097506 -0.40052831 1.4350001
0.077174664 -0.39634123 1.4220001
0.13797656 -0.3950845 1.4215001
0.15060073 -0.39178532 1.4302001
0.16159141 -0.39120483 1.4380001
-0.0009784454 -0.28530359 1.4335001
0.0054063285 -0.2846041 1.4266001
0.097617708 -0.28402045 1.427
0.11019611 -0.29514593 1.4305
0.12896544 -0.29866764 1.431
0.1488377 -0.29122198 1.4293751
0.16959235 -0.28597423 1.4284002
0.18284041 -0.28501561 1.432
-0.0009815169 -0.27774251 1.4380001
0.0087324046 -0.26922977 1.4268571
0.09031716 -0.26949078 1.4284
0.010753417 -0.2528775 1.430552
0.031132378 -0.24954817 1.4274483
0.042554699 -0.24442117 1.4215001
0.0793835 -0.2511138 1.4215002
0.086065307 -0.25089964 1.4309412
0.038692631 -0.2355088 1.4335001
0.045346744 -0.22860165 1.4252
0.077940837 -0.22834647 1.4257002
0.084140874 -0.23036507 1.4340999
0.054253623 -0.21433504 1.4313077
0.068979494 -0.21273425 1.4287857
0.080304943 -0.21847111 1.4380001
-0.017916197 -0.069445938 1.4380001
0.031018972 -0.065737434 1.4310001
0.059858188 -0.069301054 1.4350001
0.071037121 -0.068673246 1.4220001
0.089143656 -0.068245836 1.4305001
0.10167611 -0.063966215 1.4290001
0.13590173 -0.062541313 1.4350001
0.1487135 -0.062236235 1.4280001
0.1118523 -0.058944993 1.4297501
0.12555698 -0.059068676 1.4327501
0.15990582 -0.05866671 1.4230001
0.17067845 -0.05442996 1.429
0.18765917 -0.053574134 1.4302001
0.41261753 0.059072189 1.4335001
0.408066 0.069880009 1.4277143
0.15820447 0.099900857 1.4380001
0.16939123 0.099518754 1.4325
0.18977901 0.098232105 1.4208573
0.20881502 0.094646879 1.4294616
0.23078778 0.08563251 1.426
0.41704503 0.083796039 1.4290001
0.42809737 0.090793207 1.4306668
0.17815363 0.10307232 1.4350001
0.1921608 0.10998245 1.4316401
0.20872885 0.11135077 1.427853
0.2223241 0.1184036 1.4365001
0.352716 0.11957035 1.4302001
0.36758178 0.11947004 1.429
-0.22361889 0.1339111 1.4215001
-0.21217898 0.12704118 1.429
0.13297535 0.13359624 1.429
0.14816196 0.13878155 1.4298573
0.17213227 0.13771932 1.4303848
0.18882382 0.1299686 1.4258965
0.2143077 0.13212135 1.4230001
0.2239999 0.13215698 1.4327501
0.30907658 0.13484223 1.4278001
0.3255012 0.12283578 1.429
0.37414551 0.12334891 1.4220001
0.38534701 0.12959684 1.4293752
0.44510943 0.12869142 1.4305
0.49275854 0.13684872 1.4260001
-0.20720688 0.1592716 1.42375
0.15789643 0.14212939 1.4200001
0.16637488 0.14222948 1.4210001
0.21064146 0.1506317 1.4269601
0.22977547 0.15075032 1.4332579
0.24910021 0.15603152 1.4310002
0.27123705 0.15097554 1.4268572
0.292393 0.14527285 1.4290003
