# .PCD v0.7 - Point Cloud Data file format
VERSION 0.7
FIELDS x y z rgb
SIZE 4 4 4 4
TYPE F F F U
COUNT 1 1 1 1
WIDTH 781
HEIGHT 1
VIEWPOINT 0 0 0 1 0 0 0
POINTS 781
DATA ascii
-0.30972746 0.047402602 0.58617145 4293411040
-0.27855814 0.046632253 0.57033867 4293411040
-0.20732181 0.04746677 0.59484619 4293411040
-0.30196789 0.07659892 0.56464958 4293411040
-0.27540553 0.075021356 0.57163316 4293411040
-0.224666 0.07680545 0.58640212 4293411040
-0.18879224 0.076835066 0.59526247 4293411040
-0.3032316 0.12554857 0.56887877 4293411040
-0.27490759 0.12509215 0.57392484 4293411040
-0.22514029 0.12494268 0.58811909 4293411040
-0.18908659 0.12510918 0.59731454 4293411040
-0.30371994 0.17571749 0.57008922 4293411040
-0.27552775 0.17510022 0.57751316 4293411040
-0.22565384 0.17476006 0.59204471 4293411040
-0.19611704 0.16185163 0.59784263 4293411040
-0.30359274 0.21156964 0.57142419 4293411040
-0.27458426 0.21287979 0.58094543 4293411040
-0.22723474 0.21544114 0.59297127 4293411040
-0.17723989 0.22748646 0.59438515 4293411040
-0.11959829 0.22787073 0.59269577 4293411040
-0.073980093 0.22607896 0.58971429 4293411040
-0.02503234 0.22593787 0.58995044 4293411040
0.024842607 0.22577751 0.59022743 4293411040
0.074860126 0.22593731 0.58980888 4293411040
0.12486118 0.22766392 0.59261638 4293411040
0.17442895 0.2274899 0.59073114 4293411040
0.22538172 0.22745907 0.58950871 4293411040
0.27184713 0.22702242 0.59072804 4293411040
-0.32033464 0.044793036 0.6175161 4293411040
-0.26703376 0.044716284 0.60640264 4293411040
-0.20520966 0.047009647 0.6142 4293411040
-0.17687282 0.049213946 0.64300001 4293411040
-0.14543517 0.04959663 0.648 4293411040
-0.25684816 0.053295635 0.603625 4293411040
-0.1648362 0.076465577 0.6047225 4293411040
-0.14102764 0.074664041 0.61409748 4293411040
-0.16635486 0.12514575 0.60531622 4293411040
-0.14171921 0.12344879 0.61298388 4293411040
-0.20153919 0.19674286 0.60009992 4293411040
-0.17403711 0.17661196 0.60860115 4293411040
-0.14296624 0.17416246 0.62178493 4293411040
-0.20394604 0.21224165 0.60129017 4293411040
-0.17330801 0.21486785 0.60895681 4293411040
-0.12838657 0.21992111 0.62131941 4293411040
-0.07587187 0.22282334 0.62295216 4293411040
-0.024315817 0.22251169 0.6230197 4293411040
0.025207492 0.22244146 0.6238876 4293411040
0.075310655 0.22250913 0.62358212 4293411040
0.12511548 0.22300324 0.6220094 4293411040
0.17534371 0.2237433 0.62427127 4293411040
0.22469857 0.22506972 0.623694 4293411040
0.27567565 0.22465061 0.62340856 4293411040
0.30849132 0.22410858 0.63367975 4293411040
-0.33634782 0.042036835 0.67775238 4293411040
-0.27875426 0.04173534 0.69500005 4293411040
-0.16709085 0.048234727 0.68269575 4293411040
-0.14777407 0.049357504 0.65500003 4293411040
-0.16199732 0.050977208 0.67931259 4293411040
-0.14116687 0.196954 0.65416676 4293411040
-0.12276857 0.21560197 0.6745882 4293411040
-0.074059449 0.21813719 0.67230529 4293411040
-0.025824588 0.21806172 0.67269933 4293411040
0.025165854 0.21809508 0.67289835 4293411040
0.07563106 0.21741781 0.67236865 4293411040
0.12496959 0.21821335 0.67468232 4293411040
0.17407064 0.21750803 0.67189145 4293411040
0.22479992 0.21893762 0.67003131 4293411040
0.27569351 0.21938437 0.67107904 4293411040
0.31944233 0.21837533 0.67743486 4293411040
0.35019794 0.2164899 0.69900006 4293411040
-0.35372272 0.037216224 0.74242866 4293411040
-0.32529294 0.038699605 0.73590904 4293411040
-0.28461215 0.035129949 0.72705758 4293411040
-0.2087175 0.047060709 0.74300003 4293411040
-0.17830683 0.04536004 0.72521812 4293411040
-0.16959175 0.050315097 0.70050001 4293411040
-0.15311268 0.21234399 0.7402308 4293411040
-0.12278672 0.21266131 0.72400689 4293411040
-0.075982206 0.21375978 0.72281933 4293411040
-0.025666734 0.2149355 0.72437471 4293411040
0.024672091 0.21472622 0.72444594 4293411040
0.074304752 0.21424904 0.72325575 4293411040
0.12561004 0.21344091 0.72243446 4293411040
0.17576344 0.21412237 0.72516018 4293411040
0.22422773 0.21488906 0.72350591 4293411040
0.27515954 0.2170496 0.72827351 4293411040
0.3258602 0.213048 0.72423679 4293411040
0.35857621 0.21206808 0.72944731 4293411040
-0.35545409 0.034892462 0.75927514 4293411040
-0.33297276 0.033266798 0.75803721 4293411040
-0.25113204 0.041442726 0.79399997 4293411040
-0.22151704 0.043066822 0.77630115 4293411040
-0.19141817 0.039719079 0.77147228 4293411040
-0.15753838 0.20876043 0.77693099 4293411040
-0.12473907 0.2085932 0.77344763 4293411040
-0.074847981 0.2089618 0.77343267 4293411040
-0.025171271 0.21063894 0.77258945 4293411040
0.02577203 0.21070954 0.7733075 4293411040
0.075177088 0.21060334 0.77411342 4293411040
0.12451124 0.21021478 0.77570128 4293411040
0.17435206 0.2092243 0.77358115 4293411040
0.22555353 0.20977443 0.77373862 4293411040
0.27462074 0.21144563 0.77324414 4293411040
0.32689795 0.21062022 0.772484 4293411040
0.37021035 0.20753676 0.77420038 4293411040
0.40066963 0.20528592 0.79600006 4293411040
-0.2564078 0.03269415 0.82396364 4293411040
-0.22899561 0.034203548 0.81564116 4293411040
-0.16162004 0.20342873 0.82558006 4293411040
-0.12487139 0.20440488 0.82322037 4293411040
-0.075055972 0.20500748 0.82329595 4293411040
-0.0244669 0.20741461 0.8241421 4293411040
0.025178816 0.20637208 0.8227694 4293411040
0.074208774 0.20650144 0.82334584 4293411040
0.1253235 0.20489247 0.82324857 4293411040
0.17513995 0.20465499 0.82315081 4293411040
0.22374354 0.20458762 0.82206923 4293411040
0.27509886 0.20597573 0.82263422 4293411040
0.32528362 0.20916389 0.822851 4293411040
0.37385872 0.2056535 0.82571179 4293411040
0.40969655 0.20461133 0.83072412 4293411040
-0.16928713 0.19951157 0.89339995 4293411040
-0.12260878 0.19889444 0.88977742 4293411040
-0.078208305 0.19939137 0.89197558 4293411040
-0.033492643 0.19971354 0.89379168 4293411040
0.019394344 0.19908001 0.88934463 4293411040
0.070017651 0.19936222 0.89261109 4293411040
0.12815081 0.19873393 0.88881469 4293411040
0.17630717 0.19803096 0.8820678 4293411040
0.22119884 0.19776756 0.88337296 4293411040
0.27009696 0.19893976 0.88202125 4293411040
0.32363513 0.1995689 0.89353335 4293411040
0.38352254 0.19918942 0.87764883 4293411040
0.40603742 0.19930211 0.89036369 4293411040
-0.16518682 0.20142139 0.86980212 4293411040
-0.12637238 0.20182848 0.86606491 4293411040
-0.074465089 0.20216747 0.86897326 4293411040
-0.022672923 0.20366558 0.87095845 4293411040
0.026901765 0.20217609 0.8669436 4293411040
0.076363623 0.20267621 0.86989248 4293411040
0.12391233 0.20195387 0.86604762 4293411040
0.17331608 0.20109235 0.85760236 4293411040
0.22697574 0.2017632 0.86134094 4293411040
0.27679309 0.20231386 0.86559987 4293411040
0.32500303 0.20532379 0.87268388 4293411040
0.37603012 0.20343409 0.85951412 4293411040
0.41949528 0.20257092 0.87101489 4293411040
0.45058683 0.20460317 0.89100003 4293411040
-0.17077076 0.19618626 0.92321926 4293411040
-0.12642586 0.19612728 0.9230603 4293411040
-0.074805014 0.19665633 0.92244148 4293411040
-0.027344665 0.197907 0.92556739 4293411040
0.026421504 0.19722064 0.92265671 4293411040
0.075727329 0.19639847 0.92346418 4293411040
0.12405322 0.19485554 0.9230966 4293411040
0.17416067 0.1946564 0.92474353 4293411040
0.22439772 0.19356722 0.92570138 4293411040
0.27515638 0.19572449 0.92849982 4293411040
0.32444841 0.19664623 0.92641735 4293411040
0.38217908 0.19776583 0.91823077 4293411040
0.41162056 0.19924532 0.92582059 4293411040
-0.013921292 0.20069057 0.90615392 4293411040
0.29754609 0.20053309 0.90100002 4293411040
0.31317765 0.20112954 0.90507156 4293411040
0.39131626 0.20256734 0.92491674 4293411040
0.43072051 0.2016474 0.92530513 4293411040
0.45761839 0.20598009 0.93542862 4293411040
-0.20204651 0.1885561 0.98700011 4293411040
-0.17569578 0.1913362 0.97368562 4293411040
-0.12448768 0.19343567 0.97377509 4293411040
-0.075708143 0.19214316 0.97390068 4293411040
-0.027571997 0.19425817 0.97295308 4293411040
0.027753266 0.19424413 0.97368443 4293411040
0.074889146 0.19162919 0.97237611 4293411040
0.12501799 0.19040498 0.97197556 4293411040
0.1755411 0.18883729 0.97074503 4293411040
0.22456478 0.18901622 0.97430027 4293411040
0.2691972 0.18946478 0.96769625 4293411040
0.32634312 0.18975079 0.96994674 4293411040
0.36149511 0.18856345 0.97823644 4293411040
0.4227075 0.1969088 0.97780734 4293411040
0.39636844 0.21038419 0.96050006 4293411040
0.41881016 0.20363818 0.97285968 4293411040
0.46757799 0.20748059 0.97669047 4293411040
0.50318062 0.21911088 0.99500006 4293411040
0.44766796 -0.068431757 1.046 4293411040
0.46712443 -0.065577649 1.0469211 4293411040
0.51187056 -0.055789318 1.0364194 4293411040
0.51917392 -0.024850411 1.0366013 4293411040
0.47783503 0.031174857 1.0205625 4293411040
0.512721 0.021382764 1.0271877 4293411040
0.48712999 0.053292658 1.040913 4293411040
0.51180828 0.067022957 1.0282828 4293411040
-0.20384569 0.18471478 1.0269474 4293411040
-0.17596069 0.18766688 1.0238726 4293411040
-0.1245587 0.18824984 1.0234228 4293411040
-0.076207213 0.18721223 1.0229578 4293411040
-0.022115549 0.19306871 1.0242223 4293411040
0.02435446 0.18918127 1.0256306 4293411040
0.072993256 0.18821852 1.0242685 4293411040
0.12533855 0.18791328 1.0251572 4293411040
0.1755797 0.18494664 1.0237057 4293411040
0.22376864 0.18444322 1.0247411 4293411040
0.2757037 0.18476976 1.0270926 4293411040
0.32571143 0.18506309 1.0260398 4293411040
0.37461674 0.18266016 1.0224645 4293411040
0.41660744 0.19273575 1.0221636 4293411040
0.45288682 0.19981809 1.041 4293411040
0.39765054 0.20683455 1.0176002 4293411040
0.40778664 0.20756571 1.014149 4293411040
0.47773731 0.20711902 1.0249245 4293411040
0.51658797 0.21996246 1.0353333 4293411040
0.44787341 -0.066586539 1.0694652 4293411040
0.4715713 -0.055530939 1.0607209 4293411040
0.50323981 -0.051687341 1.0531666 4293411040
0.47727564 -0.024324672 1.0819155 4293411040
0.50891572 -0.024785969 1.0641911 4293411040
0.43152142 0.031506419 1.0874839 4293411040
0.46732688 0.018405359 1.079108 4293411040
0.50759059 0.0033043509 1.0575418 4293411040
0.43894228 0.056989588 1.0882002 4293411040
0.47587699 0.078319252 1.0723858 4293411040
0.51340336 0.085693978 1.0605124 4293411040
0.44214532 0.11404958 1.0933828 4293411040
0.47021845 0.1189969 1.0875556 4293411040
0.52571291 0.12481295 1.0792772 4293411040
-0.21070747 0.18017726 1.0778044 4293411040
-0.17647398 0.18488431 1.0740411 4293411040
-0.13397375 0.18411116 1.0691055 4293411040
-0.072296835 0.18481104 1.0738466 4293411040
-0.021077223 0.18772325 1.074911 4293411040
0.023171019 0.18156105 1.0717655 4293411040
0.076524995 0.18379448 1.0737634 4293411040
0.12621054 0.18279757 1.0743946 4293411040
0.17500696 0.18039635 1.0745041 4293411040
0.22518647 0.17905356 1.0748868 4293411040
0.2738947 0.1756746 1.0793269 4293411040
0.326125 0.18150815 1.0734845 4293411040
0.36260656 0.17716222 1.0723214 4293411040
0.4246923 0.18668753 1.0710402 4293411040
0.53072679 0.17529088 1.0781811 4293411040
0.48566979 0.20660125 1.067423 4293411040
0.52180046 0.20903727 1.0661749 4293411040
0.44664916 -0.067461863 1.1427194 4293411040
0.45224124 -0.062829502 1.1192499 4293411040
0.43952358 -0.016130773 1.1210567 4293411040
0.45661986 -0.03476207 1.120644 4293411040
0.4295769 0.010705447 1.1074674 4293411040
0.46593103 0.03987531 1.1015652 4293411040
0.4455944 0.084002852 1.1259166 4293411040
0.45945132 0.081144072 1.1215307 4293411040
0.44589162 0.12724733 1.114527 4293411040
0.47630042 0.13521843 1.1072042 4293411040
0.50920206 0.14052199 1.104684 4293411040
-0.21427162 0.17445165 1.1212691 4293411040
-0.18069322 0.18185568 1.1233239 4293411040
-0.12196617 0.18388103 1.1320187 4293411040
-0.075917274 0.18322866 1.1250734 4293411040
-0.023230229 0.17884418 1.1243831 4293411040
0.024402149 0.17589495 1.1249796 4293411040
0.075674772 0.17720601 1.1245044 4293411040
0.1247999 0.17529179 1.1205326 4293411040
0.17217377 0.17493697 1.1225227 4293411040
0.22665372 0.17418367 1.1224997 4293411040
0.27362707 0.16980901 1.1131022 4293411040
0.32428625 0.17603596 1.1244513 4293411040
0.36259413 0.17699595 1.1244286 4293411040
0.44554815 0.17092663 1.1257565 4293411040
0.47438958 0.17072538 1.1242172 4293411040
0.5154075 0.17457147 1.1165302 4293411040
0.48603153 0.20892048 1.1111667 4293411040
0.51851362 0.20741746 1.1250002 4293411040
0.43569934 -0.065653458 1.1617213 4293411040
0.43969014 -0.041024435 1.1604486 4293411040
0.4605892 0.08925917 1.1568912 4293411040
-0.084176391 0.12116548 1.1968285 4293411040
0.44962665 0.12965463 1.159 4293411040
0.45855653 0.14161974 1.1725556 4293411040
-0.2172821 0.17168735 1.1756459 4293411040
-0.17868833 0.18224974 1.1750474 4293411040
-0.12338067 0.17846994 1.1750492 4293411040
-0.074070878 0.18097648 1.1789489 4293411040
-0.022633543 0.16742633 1.1742193 4293411040
0.023850614 0.16364874 1.17573 4293411040
0.07393568 0.16903372 1.1759058 4293411040
0.12340365 0.1692221 1.1746743 4293411040
0.17185637 0.17088738 1.1739323 4293411040
0.22708388 0.17273055 1.1722442 4293411040
0.26266837 0.1721338 1.1747777 4293411040
0.33524603 0.17349644 1.1688668 4293411040
0.36322013 0.17827179 1.17465 4293411040
0.42178163 0.18737324 1.1615 4293411040
0.47729474 0.18721063 1.1630002 4293411040
0.51445162 0.19443108 1.1656818 4293411040
0.49374473 0.206019 1.1665 4293411040
0.5274294 0.21039775 1.1765121 4293411040
-0.011326998 -0.023697354 1.2294383 4293411040
0.024960125 -0.022730049 1.2207559 4293411040
0.0721085 -0.019782444 1.2209443 4293411040
0.12385613 -0.013661186 1.223893 4293411040
0.17414725 -0.011512096 1.2277571 4293411040
0.22097294 -0.0080719255 1.237892 4293411040
-0.008758923 0.025969382 1.2219721 4293411040
0.025088506 0.024492091 1.2208756 4293411040
0.075472459 0.024543764 1.2233927 4293411040
0.12496038 0.024323104 1.2135596 4293411040
0.17338802 0.024246749 1.2233198 4293411040
0.22069068 0.023120675 1.2390726 4293411040
-0.0091089448 0.074665196 1.2398634 4293411040
0.025502611 0.075348198 1.2344127 4293411040
0.071711697 0.07126452 1.2330278 4293411040
0.12197667 0.057079483 1.2203523 4293411040
0.17723951 0.053249858 1.2355554 4293411040
0.21855536 0.056952853 1.2377497 4293411040
-0.11228894 0.13135855 1.2260258 4293411040
-0.069865994 0.13168308 1.218508 4293411040
-0.023613444 0.1266171 1.2324324 4293411040
0.024760356 0.12594421 1.2184564 4293411040
0.066583455 0.12835649 1.2259095 4293411040
-0.23051576 0.16968727 1.2256831 4293411040
-0.17494705 0.18358654 1.2255869 4293411040
-0.12214755 0.1688655 1.2256559 4293411040
-0.074876532 0.16646707 1.2211062 4293411040
-0.030919995 0.15765129 1.2157794 4293411040
0.035877433 0.15459302 1.2052592 4293411040
0.076875143 0.15776028 1.2171155 4293411040
0.12400476 0.1609408 1.2230413 4293411040
0.17231631 0.16527317 1.2282033 4293411040
0.22816995 0.1732014 1.2194761 4293411040
0.26896015 0.17510331 1.2245001 4293411040
0.34414136 0.17281871 1.2130001 4293411040
0.36498934 0.17845026 1.2294668 4293411040
0.46967384 0.16555727 1.2125001 4293411040
0.53361332 0.2163159 1.2213397 4293411040
0.17476669 -0.30091387 1.2970001 4293411040
0.17094536 -0.28849182 1.2850966 4293411040
-0.0099366112 -0.05295258 1.2844 4293411040
0.067360394 -0.052466732 1.2973334 4293411040
-0.019404199 -0.037752707 1.2530715 4293411040
0.034875564 -0.048183281 1.2648333 4293411040
0.082218587 -0.041016854 1.2707144 4293411040
0.12571251 -0.033493899 1.2731634 4293411040
0.18077444 -0.029944427 1.2727966 4293411040
0.21718657 -0.025724512 1.2649479 4293411040
0.19808729 0.028026575 1.2532001 4293411040
0.22481997 0.032954875 1.2545105 4293411040
-0.009561182 0.079612292 1.2533159 4293411040
0.078152701 0.098154061 1.2516 4293411040
0.14415398 0.067737386 1.2722001 4293411040
0.17214662 0.062136404 1.2727001 4293411040
0.21611322 0.061715752 1.266 4293411040
-0.13291696 0.13913129 1.270457 4293411040
-0.093593523 0.14866699 1.25 4293411040
0.08791475 0.12166057 1.2649999 4293411040
0.10493722 0.14506601 1.2835001 4293411040
-0.2545177 0.15872249 1.2764375 4293411040
-0.23429427 0.16852938 1.2706766 4293411040
-0.17049055 0.18190223 1.2735348 4293411040
-0.12744288 0.16020297 1.2659436 4293411040
-0.09420836 0.15685433 1.2542669 4293411040
0.099247478 0.15161113 1.25 4293411040
0.12542488 0.15363553 1.27042 4293411040
0.17098007 0.15945385 1.2669524 4293411040
0.23464587 0.16950724 1.2775713 4293411040
0.26083353 0.17141727 1.2843336 4293411040
0.37568143 0.17969598 1.2739 4293411040
0.48792738 0.18412879 1.2748001 4293411040
0.48066762 0.20062502 1.2620001 4293411040
0.1228121 -0.35058549 1.3470001 4293411040
0.15707766 -0.35235739 1.3416667 4293411040
0.12957309 -0.32098153 1.3249005 4293411040
0.16290067 -0.3213419 1.3146608 4293411040
0.14102295 -0.29599068 1.3350741 4293411040
0.16137646 -0.28874737 1.319231 4293411040
-0.013397635 -0.05779079 1.3260001 4293411040
0.072812229 -0.054474562 1.3210834 4293411040
0.094823077 -0.046103377 1.323143 4293411040
0.12606232 -0.043733589 1.3252811 4293411040
0.17326553 -0.037179936 1.3211876 4293411040
0.14507185 0.078157783 1.3186668 4293411040
0.17353523 0.072052151 1.3227189 4293411040
0.20838092 0.069754645 1.3165001 4293411040
-0.2643024 0.14873204 1.3157501 4293411040
-0.20528896 0.13254495 1.3432001 4293411040
-0.15439558 0.1429994 1.3260001 4293411040
-0.14654845 0.14308025 1.3065001 4293411040
0.11311267 0.13895869 1.3221251 4293411040
0.43781671 0.12446678 1.3321668 4293411040
0.45276281 0.11895972 1.3470001 4293411040
-0.25735101 0.15703043 1.3222144 4293411040
-0.22384523 0.17634004 1.3211668 4293411040
-0.16725625 0.17220134 1.3261225 4293411040
-0.14433429 0.15659103 1.3106924 4293411040
0.14084606 0.15183556 1.3226668 4293411040
0.16062053 0.15525657 1.3260001 4293411040
0.23164336 0.16866553 1.3229048 4293411040
0.273644 0.16713096 1.3258904 4293411040
0.30311134 0.18107815 1.3280001 4293411040
0.38657016 0.18199825 1.3278999 4293411040
0.4059211 0.18763594 1.3390001 4293411040
0.49742624 0.19531575 1.3060001 4293411040
0.50632888 0.16948171 1.3257778 4293411040
0.44448221 0.20158184 1.3270001 4293411040
0.48568293 0.21007058 1.3362502 4293411040
0.50308651 0.20631273 1.3374287 4293411040
0.086359553 -0.36699951 1.3809246 4293411040
0.12044825 -0.36764285 1.3727788 4293411040
0.15360418 -0.36579809 1.3742502 4293411040
-0.0090821134 -0.31018031 1.3906137 4293411040
0.026079865 -0.31686524 1.3679292 4293411040
0.074512787 -0.32389188 1.3564268 4293411040
0.10749363 -0.32084528 1.3579003 4293411040
-0.013639027 -0.29681152 1.3957142 4293411040
0.031684224 -0.28547722 1.3820162 4293411040
0.07057476 -0.28646073 1.375726 4293411040
0.12916255 -0.29585978 1.3755779 4293411040
0.16278987 -0.28662524 1.37388 4293411040
0.084198743 -0.058979981 1.3752 4293411040
0.12583399 -0.052255481 1.3800001 4293411040
0.15634972 -0.051901568 1.3913335 4293411040
0.13013731 -0.049574252 1.3575716 4293411040
0.17160627 -0.044159256 1.3717599 4293411040
0.1736725 0.083679631 1.3770001 4293411040
0.21534106 0.079210944 1.3769232 4293411040
0.41341078 0.065761335 1.39625 4293411040
-0.20675087 0.13612285 1.3711925 4293411040
-0.18866956 0.13803653 1.3763158 4293411040
0.12863316 0.14173362 1.3759513 4293411040
0.16507834 0.14957784 1.3958751 4293411040
0.2881743 0.14865527 1.3934 4293411040
0.32019597 0.13575095 1.3888106 4293411040
0.36097428 0.1362188 1.3944566 4293411040
0.43839979 0.13236 1.3747693 4293411040
0.46303788 0.1290004 1.3740715 4293411040
0.50371522 0.14653313 1.3676667 4293411040
-0.26031688 0.16199195 1.372 4293411040
-0.22375458 0.18262783 1.3724446 4293411040
-0.17845249 0.17070949 1.3743454 4293411040
0.14907305 0.15158069 1.355 4293411040
0.16910076 0.15314426 1.3734446 4293411040
0.23925771 0.16436507 1.3687501 4293411040
0.27989841 0.15851566 1.3685081 4293411040
0.323917 0.16490221 1.3794031 4293411040
0.36574823 0.16587767 1.3825198 4293411040
0.41219029 0.1879141 1.3757501 4293411040
0.49815539 0.18775842 1.3921113 4293411040
0.50866967 0.17714466 1.3782558 4293411040
0.48551089 0.20767775 1.3725474 4293411040
0.50527805 0.20550093 1.3634545 4293411040
0.089390777 -0.41369146 1.4305791 4293411040
0.11877479 -0.41939384 1.4365549 4293411040
0.080794975 -0.38774899 1.4096279 4293411040
0.12520929 -0.39235881 1.4091936 4293411040
0.15713088 -0.38854459 1.4281667 4293411040
-0.025444932 -0.31324369 1.4034073 4293411040
-0.0042638038 -0.28939703 1.4140831 4293411040
0.020309472 -0.26697564 1.4173181 4293411040
0.078101024 -0.2647005 1.4164084 4293411040
0.12354849 -0.29539108 1.4250532 4293411040
0.16826767 -0.28647062 1.424395 4293411040
0.032698411 -0.23797452 1.4327252 4293411040
0.069086589 -0.22840111 1.4224422 4293411040
-0.016273247 -0.069687404 1.4430001 4293411040
0.035847183 -0.065405659 1.4237779 4293411040
0.079407819 -0.067535728 1.4251667 4293411040
0.1254057 -0.059840031 1.4236947 4293411040
0.17330013 -0.056120951 1.4291002 4293411040
0.17844632 -0.048188288 1.4105999 4293411040
0.17893606 0.095104307 1.4167434 4293411040
0.21440703 0.09108682 1.4261924 4293411040
0.4153713 0.076623581 1.4242156 4293411040
-0.21565868 0.12913172 1.4242858 4293411040
-0.18231446 0.14589807 1.4000001 4293411040
0.13878787 0.13875565 1.4176787 4293411040
0.18172081 0.13073108 1.425141 4293411040
0.21613261 0.12812167 1.4288961 4293411040
0.29061428 0.14604966 1.4205792 4293411040
0.3295559 0.13463262 1.4132596 4293411040
0.3705537 0.12885699 1.4204261 4293411040
0.44142097 0.12697731 1.4311856 4293411040
0.48305675 0.13969271 1.426375 4293411040
0.50794423 0.14444964 1.4432858 4293411040
-0.26184231 0.16961117 1.4290999 4293411040
-0.21242952 0.17634918 1.4291036 4293411040
-0.19236082 0.16680895 1.4110624 4293411040
0.19153756 0.15309785 1.409 4293411040
0.22958352 0.15686065 1.4304066 4293411040
0.26144141 0.15295824 1.4264617 4293411040
0.3394337 0.15200135 1.4030833 4293411040
0.38293913 0.16737638 1.4185231 4293411040
0.41673997 0.1779934 1.4357246 4293411040
0.49427524 0.1794291 1.4287313 4293411040
0.50207907 0.16690359 1.4193128 4293411040
0.44948095 0.20150894 1.4380001 4293411040
0.48086619 0.20585062 1.4229645 4293411040
0.14219071 -0.42499861 1.4621906 4293411040
0.15631974 -0.41589636 1.4845715 4293411040
0.15686311 -0.3998054 1.457 4293411040
0.098118708 -0.25633049 1.4510001 4293411040
0.12342241 -0.27971715 1.4774348 4293411040
0.16640629 -0.28565386 1.4737428 4293411040
0.022788981 -0.21904668 1.4691271 4293411040
0.07792715 -0.2171969 1.4570296 4293411040
0.11143313 -0.2418779 1.4732727 4293411040
0.026943682 -0.17715403 1.4849331 4293411040
0.057709131 -0.18423937 1.4868752 4293411040
0.035118978 -0.14726742 1.4951583 4293411040
0.082534611 -0.1171129 1.4990001 4293411040
0.11797934 -0.10544258 1.4937861 4293411040
-0.0086431177 -0.071732774 1.4708002 4293411040
0.034668341 -0.07208655 1.4845556 4293411040
0.078373097 -0.076964505 1.47764 4293411040
0.1231615 -0.082529657 1.480902 4293411040
0.17233706 -0.070266537 1.4797322 4293411040
0.20375222 -0.068861224 1.4990001 4293411040
0.23174237 0.095274024 1.4710835 4293411040
0.4141559 0.077146687 1.4739292 4293411040
-0.22288592 0.12883238 1.4720001 4293411040
0.14540482 0.13207555 1.4712501 4293411040
0.16851743 0.12282971 1.4714051 4293411040
0.23768711 0.12079924 1.4681429 4293411040
0.2720224 0.14685002 1.4760358 4293411040
0.31901327 0.13409314 1.4735001 4293411040
0.37860489 0.11833862 1.4735833 4293411040
0.42874995 0.12529249 1.4685769 4293411040
0.46339628 0.11079155 1.4701786 4293411040
0.5123049 0.14368598 1.4597002 4293411040
-0.26307929 0.17461911 1.4808574 4293411040
-0.22824672 0.18196733 1.4670835 4293411040
0.27018809 0.15026331 1.46675 4293411040
0.42332903 0.17166971 1.4582858 4293411040
0.48284388 0.177312 1.4670196 4293411040
0.50139016 0.15548488 1.4510001 4293411040
0.47806075 0.20569514 1.4716287 4293411040
0.16122487 -0.42707095 1.5195001 4293411040
0.1379994 -0.27077332 1.5121001 4293411040
0.16645388 -0.28545308 1.5244706 4293411040
0.11702142 -0.23475125 1.5245001 4293411040
-0.0040361583 -0.16075887 1.5207223 4293411040
0.0078376839 -0.15872167 1.5072502 4293411040
0.06625966 -0.17065868 1.5120797 4293411040
-0.0087377504 -0.12380846 1.5423961 4293411040
0.026803039 -0.125561 1.5236784 4293411040
0.073648348 -0.12261666 1.5189053 4293411040
0.12423486 -0.11863115 1.5223536 4293411040
0.1746356 -0.1107385 1.534392 4293411040
0.20582764 -0.11038098 1.5361763 4293411040
-0.0069472562 -0.077381909 1.5158334 4293411040
0.027059302 -0.086740516 1.5295054 4293411040
0.073858917 -0.08965832 1.5134997 4293411040
0.14647619 -0.096186005 1.5030001 4293411040
0.17916766 -0.08819022 1.5139138 4293411040
0.20564148 -0.088514462 1.5241904 4293411040
0.42657614 0.047560629 1.5343333 4293411040
0.24623886 0.097822204 1.5105001 4293411040
0.25014979 0.093734048 1.5020001 4293411040
0.39948881 0.083735339 1.5460001 4293411040
0.41041249 0.076666869 1.5240985 4293411040
-0.2238432 0.12875433 1.5258335 4293411040
0.15921736 0.12291982 1.5086 4293411040
0.24888338 0.11064132 1.5158335 4293411040
0.27645794 0.14340276 1.5226667 4293411040
0.32275596 0.13809998 1.5275556 4293411040
0.38045454 0.11272998 1.5216154 4293411040
0.41592336 0.10964409 1.5194341 4293411040
-0.26448336 0.17246082 1.5242757 4293411040
-0.24626306 0.18416059 1.5058572 4293411040
0.47612256 0.19159551 1.5150855 4293411040
0.47652841 0.20236798 1.5075001 4293411040
0.1691564 -0.45832497 1.5885 4293411040
0.17104518 -0.44047391 1.5715001 4293411040
0.14597949 -0.26799551 1.5608001 4293411040
0.16854225 -0.28687882 1.5717059 4293411040
0.12663756 -0.23821127 1.5771251 4293411040
-0.0099756652 -0.12066371 1.5512798 4293411040
0.0075947917 -0.1072475 1.5516843 4293411040
0.1344727 -0.13495046 1.5707 4293411040
0.17488676 -0.12839921 1.5698335 4293411040
0.20331696 -0.12860464 1.5707501 4293411040
-0.010939369 -0.089732282 1.5526668 4293411040
0.0033242521 -0.092428245 1.5508001 4293411040
0.42150593 0.048155755 1.5740001 4293411040
0.37935475 0.080536298 1.5760561 4293411040
0.40908927 0.066949487 1.5697273 4293411040
-0.25199643 0.13667522 1.59 4293411040
-0.23833673 0.13131386 1.5783334 4293411040
0.27657717 0.13134989 1.5650625 4293411040
0.32413939 0.14184277 1.5706156 4293411040
0.37786481 0.11409978 1.5742801 4293411040
0.40330693 0.10245888 1.5608751 4293411040
-0.27295476 0.1634907 1.5600001 4293411040
0.17721562 -0.46696493 1.6282501 4293411040
0.19489348 -0.30083597 1.6480001 4293411040
0.14734714 -0.26071 1.6165001 4293411040
0.17599784 -0.29035005 1.6203333 4293411040
0.13823298 -0.23971009 1.6207001 4293411040
0.14916153 -0.15222049 1.636 4293411040
0.15413719 -0.15333702 1.6480001 4293411040
0.14552777 -0.14474919 1.6100001 4293411040
0.17656998 -0.14300612 1.62568 4293411040
0.20548223 -0.14158419 1.6243334 4293411040
0.41609305 0.047509614 1.6286668 4293411040
0.27167529 0.094706357 1.6085 4293411040
0.34906563 0.095139071 1.6160001 4293411040
0.37522966 0.072520785 1.6188183 4293411040
0.40810093 0.05516864 1.6163002 4293411040
-0.25959337 0.13783133 1.6260002 4293411040
-0.24400373 0.13091864 1.6113335 4293411040
0.28538176 0.13262476 1.6248572 4293411040
0.32555592 0.14527692 1.6214546 4293411040
0.37474319 0.11027506 1.624967 4293411040
0.18868649 -0.47784057 1.679 4293411040
0.19129656 -0.30257717 1.68475 4293411040
0.20393096 -0.30368435 1.6745 4293411040
0.14672936 -0.25098351 1.6520001 4293411040
0.1648635 -0.27788705 1.6718334 4293411040
0.14643912 -0.24009919 1.6576002 4293411040
0.15372656 -0.24291611 1.686 4293411040
0.18195027 -0.15559666 1.6771178 4293411040
0.20836681 -0.15421523 1.6785001 4293411040
0.17785715 -0.14981823 1.6520001 4293411040
-0.27206489 0.035762314 1.6953079 4293411040
0.3906152 0.04945134 1.6802 4293411040
0.40533423 0.046448633 1.6675 4293411040
0.38160628 0.057482351 1.6629093 4293411040
-0.26772514 0.13704613 1.6719232 4293411040
-0.23794043 0.13112071 1.6620001 4293411040
0.29068232 0.13596094 1.6857501 4293411040
0.32401937 0.14799336 1.6714001 4293411040
0.36315131 0.12341785 1.6750001 4293411040
-0.28105685 0.15836722 1.6736668 4293411040
0.32142669 0.15051199 1.6600001 4293411040
0.19507836 -0.50089681 1.7360001 4293411040
0.19235103 -0.49117979 1.7116667 4293411040
0.20120099 -0.49274042 1.7360001 4293411040
0.19412778 -0.30587354 1.7276667 4293411040
0.2091361 -0.30735832 1.7238001 4293411040
0.16870138 -0.27229494 1.7224376 4293411040
0.15605694 -0.23893687 1.7340001 4293411040
0.18361475 -0.16654749 1.7243999 4293411040
0.2094568 -0.16406825 1.7198 4293411040
-0.30305758 -0.053048722 1.7320001 4293411040
-0.27998298 -0.057334322 1.7320503 4293411040
-0.30361748 -0.038838692 1.7352002 4293411040
-0.28177628 -0.026684165 1.7364002 4293411040
-0.30531609 0.014953665 1.7359231 4293411040
-0.27136901 0.021215668 1.7158811 4293411040
-0.24697249 0.020841125 1.7303125 4293411040
0.39361486 0.046030015 1.7251668 4293411040
0.40300691 0.046233136 1.7075001 4293411040
-0.27338585 0.05821171 1.7265471 4293411040
0.37779146 0.06489177 1.7210002 4293411040
-0.3098205 0.12836577 1.7267027 4293411040
-0.27723661 0.12339633 1.7202747 4293411040
-0.24438243 0.12345839 1.7306669 4293411040
0.31904563 0.14783682 1.7356668 4293411040
0.36687341 0.12950538 1.7245386 4293411040
-0.30122223 0.16232896 1.7450001 4293411040
-0.28991202 0.15679054 1.7145001 4293411040
0.33023685 0.15062049 1.7055001 4293411040
0.19968563 -0.51691216 1.7770001 4293411040
0.20573425 -0.51005703 1.7750001 4293411040
0.20536348 -0.49782804 1.7540001 4293411040
0.19061506 -0.30441305 1.7705001 4293411040
0.21608055 -0.30735278 1.7741177 4293411040
0.18202883 -0.27215657 1.775067 4293411040
0.21228626 -0.21669725 1.7950624 4293411040
0.19088569 -0.17694937 1.7732859 4293411040
0.2152248 -0.17899065 1.7780457 4293411040
-0.25858116 -0.060172569 1.7537501 4293411040
-0.24856973 -0.054874621 1.75775 4293411040
-0.26428866 -0.025123689 1.7533226 4293411040
-0.24774963 -0.025305657 1.7559232 4293411040
-0.31485826 0.03063071 1.7682693 4293411040
-0.40196669 0.094895989 1.7910001 4293411040
-0.3798359 0.093954086 1.7904646 4293411040
-0.31365407 0.078499049 1.7795837 4293411040
-0.27504185 0.083553173 1.7657876 4293411040
-0.24812266 0.076409735 1.7593533 4293411040
0.3776786 0.083053194 1.7806667 4293411040
-0.36836252 0.11346649 1.7688818 4293411040
-0.32904691 0.11482758 1.7719772 4293411040
-0.27333209 0.1041298 1.7545189 4293411040
-0.24503633 0.10867149 1.7546999 4293411040
0.31593153 0.13835777 1.7779092 4293411040
0.36968395 0.13532932 1.7724617 4293411040
0.33813331 0.1509787 1.7634286 4293411040
0.35833576 0.15015268 1.7960001 4293411040
0.19809783 -0.30486891 1.81025 4293411040
0.21247549 -0.30500868 1.8026668 4293411040
0.19485253 -0.2720378 1.8051599 4293411040
0.21591619 -0.27768412 1.8159995 4293411040
0.19197397 -0.22622943 1.8187459 4293411040
0.21488589 -0.22591092 1.8106157 4293411040
0.18989544 -0.19180681 1.8093998 4293411040
0.21444082 -0.19254646 1.8021905 4293411040
-0.3661131 0.046614002 1.821579 4293411040
-0.33487168 0.04206286 1.82025 4293411040
-0.40817201 0.081502922 1.8334615 4293411040
-0.37090871 0.072945185 1.8162953 4293411040
-0.33956555 0.074833058 1.8192043 4293411040
0.38691911 0.077180669 1.821125 4293411040
-0.35572022 0.10436368 1.8090003 4293411040
-0.34093514 0.10550392 1.8103333 4293411040
0.33190373 0.14712457 1.8335714 4293411040
0.37179253 0.13546477 1.8230555 4293411040
0.34496778 0.15077972 1.8035002 4293411040
0.35434002 0.15115593 1.8080001 4293411040
0.23911491 -0.26661751 1.8556252 4293411040
0.23871222 -0.24436051 1.8525002 4293411040
-0.35250008 0.045796014 1.8525002 4293411040
-0.42430058 0.076906502 1.866643 4293411040
0.38734651 0.085677646 1.8656667 4293411040
0.33303034 0.13617925 1.8674546 4293411040
0.37443066 0.12960744 1.8751155 4293411040
0.35821646 0.15030998 1.8500001 4293411040
0.34431049 0.13413765 1.9193637 4293411040
0.36844596 0.12917946 1.9284656 4293411040
0.35709387 0.1301088 1.9537779 4293411040
-0.77643323 -0.52546173 1.6295999 4283414097
-0.85118449 -0.47162423 1.6480001 4283414097
-0.83263439 -0.45787296 1.6425456 4283414097
-0.77549827 -0.47054201 1.6477897 4283414097
-0.82720804 -0.43742049 1.6355764 4283414097
-0.75384396 -0.42771369 1.6447999 4283414097
-0.74076813 -0.42602792 1.6417779 4283414097
-0.85546452 -0.50413078 1.6613334 4283414097
-0.83381915 -0.51556009 1.6729476 4283414097
-0.78581119 -0.50737888 1.6884615 4283414097
-0.85535014 -0.49055952 1.6621331 4283414097
-0.82488877 -0.47974625 1.6631519 4283414097
-0.77196777 -0.47158748 1.6639522 4283414097
-0.74211729 -0.46226975 1.6865406 4283414097
-0.86408806 -0.41660246 1.6799002 4283414097
-0.80851817 -0.4428165 1.6540002 4283414097
-0.77845824 -0.43800408 1.6566246 4283414097
-0.73976481 -0.44045192 1.6713872 4283414097
-0.86712497 -0.39288685 1.6763334 4283414097
-0.84490323 -0.55106705 1.7140001 4283414097
-0.82869458 -0.53208661 1.7199162 4283414097
-0.77663368 -0.51873398 1.7232094 4283414097
-0.73544526 -0.50794214 1.7315928 4283414097
-0.75651205 -0.49402097 1.7083637 4283414097
-0.72442091 -0.47558367 1.7211056 4283414097
-0.69553405 -0.46141636 1.7202501 4283414097
-0.57934469 -0.45248967 1.7442729 4283414097
-0.53407824 -0.47990915 1.735067 4283414097
-0.87466311 -0.41812855 1.7163848 4283414097
-0.7215786 -0.43880561 1.7085737 4283414097
-0.69171906 -0.44333076 1.7088572 4283414097
-0.61422086 -0.41728696 1.7417176 4283414097
-0.57362366 -0.42137939 1.7291672 4283414097
-0.53071666 -0.42666003 1.7388951 4283414097
-0.49070302 -0.43576646 1.7446669 4283414097
-0.58054918 -0.39720142 1.743 4283414097
-0.50362271 -0.3712655 1.7444286 4283414097
-0.49642241 -0.37087137 1.7441112 4283414097
-0.83997929 -0.54203248 1.7500001 4283414097
-0.77457178 -0.53347087 1.7581602 4283414097
-0.65457743 -0.45455942 1.7896668 4283414097
-0.62552196 -0.45607948 1.776 4283414097
-0.57055968 -0.46543667 1.7595296 4283414097
-0.52268887 -0.47300011 1.7648796 4283414097
-0.48200893 -0.46886674 1.7681921 4283414097
-0.65391839 -0.43986234 1.7700001 4283414097
-0.62940049 -0.42835823 1.7569426 4283414097
-0.55933118 -0.40818647 1.7650439 4283414097
-0.5222621 -0.42047063 1.7535062 4283414097
-0.47776192 -0.42267177 1.7584096 4283414097
-0.61064517 -0.39712304 1.7583847 4283414097
-0.57183486 -0.38764125 1.7754002 4283414097
-0.52517956 -0.37404501 1.7653081 4283414097
-0.47974381 -0.37407619 1.7588962 4283414097
-0.5145601 -0.33046028 1.7852815 4283414097
-0.48418269 -0.3319568 1.7743195 4283414097
-0.50787866 -0.29817739 1.7705002 4283414097
-0.49258098 -0.29775637 1.7680001 4283414097
-0.65448397 -0.46450675 1.8010001 4283414097
-0.64477587 -0.46939933 1.8035002 4283414097
-0.57210106 -0.37814611 1.8113998 4283414097
-0.53587317 -0.3392455 1.8060001 4283414097
