# .PCD v0.7 - Point Cloud Data file format
VERSION 0.7
FIELDS x y z rgb
SIZE 4 4 4 4
TYPE F F F U
COUNT 1 1 1 1
WIDTH 696
HEIGHT 1
VIEWPOINT 0 0 0 1 0 0 0
POINTS 696
DATA ascii
-0.20625068 -0.42507648 1.1461377 4293989462
-0.17489347 -0.42115209 1.1392831 4293989462
-0.14616548 -0.44004238 1.1395001 4293989462
-0.20358932 -0.38408381 1.1441003 4293989462
-0.18105429 -0.38099444 1.1412907 4293989462
-0.2049671 -0.31244797 1.1465238 4293989462
-0.17381735 -0.31824818 1.138523 4293989462
-0.12713818 -0.31638116 1.1450825 4293989462
-0.074225597 -0.3145273 1.1416826 4293989462
-0.025275908 -0.3109349 1.1283962 4293989462
0.025804561 -0.31122413 1.1309934 4293989462
0.055261504 -0.30860835 1.1443601 4293989462
-0.20467393 -0.29294452 1.146625 4293989462
-0.17291379 -0.28475761 1.145331 4293989462
-0.14799115 -0.2825751 1.14836 4293989462
-0.056401525 -0.2947644 1.1479092 4293989462
-0.016064618 -0.28075159 1.1410421 4293989462
0.028497022 -0.28250602 1.1439524 4293989462
0.052156325 -0.28386179 1.1480833 4293989462
-0.0048077214 -0.23521262 1.147585 4293989462
0.025698353 -0.22633363 1.145514 4293989462
0.051726479 -0.21695215 1.1468335 4293989462
-0.0055160862 -0.17307617 1.148091 4293989462
0.0038876073 -0.17361753 1.1487501 4293989462
0.028512014 -0.13338251 1.1434151 4293989462
-0.20419838 -0.35823226 1.1619545 4293989462
-0.18780999 -0.35809392 1.1556304 4293989462
-0.25227597 -0.31502211 1.1965001 4293989462
-0.22225273 -0.31861815 1.1672844 4293989462
-0.18975097 -0.34340268 1.1552402 4293989462
-0.1204858 -0.30390996 1.1556138 4293989462
-0.088821307 -0.30285963 1.155522 4293989462
0.062696561 -0.30360705 1.1520001 4293989462
-0.2150847 -0.27647492 1.1737986 4293989462
-0.17792152 -0.26098251 1.1556576 4293989462
-0.12582678 -0.27850473 1.1731954 4293989462
-0.074689008 -0.27584541 1.1740921 4293989462
-0.03569464 -0.26999322 1.1654906 4293989462
0.023700852 -0.27196169 1.1563444 4293989462
0.061174843 -0.27170953 1.1564665 4293989462
-0.20989138 -0.22421226 1.1817932 4293989462
-0.17395212 -0.2251897 1.1612468 4293989462
-0.12608844 -0.22427501 1.1745162 4293989462
-0.074978285 -0.22354917 1.1784345 4293989462
-0.026666149 -0.22269447 1.1617692 4293989462
0.022480689 -0.21455735 1.1541767 4293989462
0.060167808 -0.2365472 1.1615077 4293989462
-0.20717488 -0.1945225 1.1932632 4293989462
-0.1694653 -0.18120867 1.1843696 4293989462
-0.13054329 -0.18224984 1.1833547 4293989462
-0.072846472 -0.1863655 1.1831889 4293989462
-0.025041943 -0.17628935 1.1686053 4293989462
0.025852533 -0.17496581 1.1637964 4293989462
0.060757119 -0.17115703 1.1843436 4293989462
-0.15573803 -0.13449058 1.1982259 4293989462
-0.14327024 -0.12563734 1.1964635 4293989462
0.027724141 -0.12275255 1.1775331 4293989462
0.061832089 -0.12535821 1.1919488 4293989462
-0.12963477 -0.06043788 1.1990001 4293989462
-0.017380113 -0.065709092 1.199 4293989462
0.03820321 -0.08683572 1.1946962 4293989462
0.061385933 -0.081866153 1.1972587 4293989462
-0.12807569 -0.046851497 1.199 4293989462
-0.30183986 -0.32021394 1.2470001 4293989462
-0.27347717 -0.31082332 1.2294499 4293989462
-0.24627544 -0.30292147 1.2103335 4293989462
-0.26781613 -0.28973144 1.2377335 4293989462
-0.23832093 -0.27432677 1.2198815 4293989462
-0.11091824 -0.2606526 1.2040653 4293989462
-0.090409532 -0.25971493 1.2019001 4293989462
-0.26212764 -0.21224375 1.243546 4293989462
-0.23528485 -0.2245097 1.2208912 4293989462
-0.25988606 -0.19242242 1.2425768 4293989462
-0.22280729 -0.17471945 1.2157619 4293989462
-0.18706144 -0.16599175 1.2027662 4293989462
-0.11711643 -0.16511796 1.2249449 4293989462
-0.07741417 -0.16456497 1.2214559 4293989462
-0.034252733 -0.15407145 1.2045556 4293989462
-0.21257633 -0.1265838 1.2223477 4293989462
-0.17847627 -0.1244761 1.2060232 4293989462
-0.12090495 -0.12522098 1.2170216 4293989462
-0.070335828 -0.13340026 1.2342399 4293989462
-0.025485544 -0.12559617 1.2223396 4293989462
0.0047318591 -0.11753473 1.2068332 4293989462
-0.21248591 -0.076322094 1.2268542 4293989462
-0.17401695 -0.075557902 1.2070835 4293989462
-0.12425365 -0.07631132 1.2088206 4293989462
-0.07358776 -0.073562264 1.2167699 4293989462
-0.024020897 -0.074987903 1.2100765 4293989462
0.020829631 -0.07091812 1.2057663 4293989462
0.065123498 -0.057731461 1.2115999 4293989462
-0.20786349 -0.032790314 1.2323456 4293989462
-0.17413345 -0.026093839 1.2146636 4293989462
-0.12525143 -0.025925394 1.2140124 4293989462
-0.075693861 -0.039098904 1.226333 4293989462
-0.022648886 -0.036071461 1.2260455 4293989462
0.025474979 -0.032801982 1.2244633 4293989462
0.064503111 -0.038163897 1.2331294 4293989462
-0.20374002 0.01898005 1.2420555 4293989462
-0.17494114 0.024260743 1.2270133 4293989462
-0.12851398 0.024575716 1.2182944 4293989462
-0.16672546 0.074487373 1.2336692 4293989462
-0.1249613 0.075946316 1.2196763 4293989462
-0.097529806 0.098135196 1.2470001 4293989462
-0.16961171 0.12681775 1.2414106 4293989462
-0.12404816 0.12464952 1.2227534 4293989462
-0.09846057 0.12565881 1.2390324 4293989462
-0.17096567 0.16165924 1.2347291 4293989462
-0.12473149 0.16680279 1.232308 4293989462
-0.09813609 0.15786283 1.243 4293989462
-0.35204941 -0.3021124 1.2945001 4293989462
-0.31510851 -0.31363487 1.2766223 4293989462
-0.29729158 -0.306779 1.25175 4293989462
-0.3557066 -0.27161029 1.2679648 4293989462
-0.32671922 -0.28036228 1.2842373 4293989462
-0.28181076 -0.26972818 1.2790866 4293989462
-0.2479682 -0.26179808 1.2557144 4293989462
-0.31063414 -0.22482453 1.2890153 4293989462
-0.27944919 -0.22848117 1.2651906 4293989462
-0.24769777 -0.24986544 1.2520001 4293989462
-0.30436048 -0.1933388 1.2921 4293989462
-0.27377731 -0.17753085 1.2728347 4293989462
-0.2452881 -0.15850149 1.2599287 4293989462
-0.25205615 -0.14684181 1.291 4293989462
-0.23792472 -0.12429668 1.2706897 4293989462
-0.10394225 -0.11197294 1.2565264 4293989462
-0.083806768 -0.11634126 1.2664368 4293989462
-0.23653285 -0.075413287 1.2722105 4293989462
-0.10426607 -0.09992864 1.25 4293989462
-0.088346139 -0.097042449 1.2547144 4293989462
-0.10385041 -0.008359246 1.2625002 4293989462
-0.074344136 -0.016872911 1.2735519 4293989462
-0.026386769 -0.012515944 1.2644271 4293989462
0.025377085 -0.0077742892 1.2630162 4293989462
0.078013532 -0.017200967 1.2660768 4293989462
0.10166597 -0.012557275 1.2918888 4293989462
0.2149329 -0.0097832214 1.2939445 4293989462
-0.21077175 0.03510914 1.2660691 4293989462
-0.19853981 0.049609013 1.25 4293989462
-0.10445926 0.024070203 1.2720332 4293989462
-0.020118142 0.0039655897 1.2925837 4293989462
0.027057309 0.024396585 1.2892982 4293989462
0.074289776 0.024177065 1.2816268 4293989462
0.10128032 0.027265452 1.2946923 4293989462
0.20847753 0.0021407944 1.2945 4293989462
-0.20873331 0.076392032 1.2741016 4293989462
-0.19164369 0.079508431 1.2562546 4293989462
-0.10367846 0.062354982 1.2672501 4293989462
-0.084053479 0.086322807 1.28275 4293989462
-0.020089099 0.08398129 1.2870612 4293989462
0.025807969 0.073347546 1.2780012 4293989462
0.071899675 0.067752056 1.2789137 4293989462
0.10008647 0.051037751 1.286 4293989462
-0.20516264 0.10858177 1.2596114 4293989462
-0.19285671 0.11288168 1.2533126 4293989462
-0.090944357 0.12098188 1.273351 4293989462
-0.021983882 0.10224959 1.2902633 4293989462
0.0031169206 0.10183395 1.294 4293989462
-0.20060463 0.17165615 1.263 4293989462
-0.17715111 0.18206374 1.2706001 4293989462
-0.11897705 0.19147608 1.2626667 4293989462
-0.094127446 0.17319658 1.2757826 4293989462
-0.11568933 0.20681639 1.2854999 4293989462
-0.034629818 0.28101033 1.2948836 4293989462
-0.35315862 -0.312381 1.3150001 4293989462
-0.33817407 -0.31215346 1.3103408 4293989462
-0.35550195 -0.2573652 1.3101332 4293989462
-0.32988152 -0.2690433 1.3075392 4293989462
-0.35461968 -0.2465456 1.3178 4293989462
-0.33135977 -0.23654081 1.3072767 4293989462
-0.31419221 -0.17496586 1.3181015 4293989462
-0.28528464 -0.1589056 1.3146731 4293989462
-0.31061816 -0.1425889 1.34332 4293989462
-0.27258065 -0.12821291 1.3313209 4293989462
-0.2658729 -0.077820912 1.3333 4293989462
-0.24807784 -0.063604698 1.3054001 4293989462
-0.079911113 -0.0051307958 1.3097693 4293989462
0.1280527 -0.0088201966 1.329017 4293989462
0.17608155 -0.015026492 1.3208659 4293989462
0.22761494 -0.022406127 1.3225671 4293989462
0.25451076 -0.027394138 1.341 4293989462
-0.077345304 0.021803109 1.3314772 4293989462
-0.024021067 0.028469596 1.3057833 4293989462
0.0038826738 0.024922214 1.3000001 4293989462
0.1305564 0.016935254 1.3336773 4293989462
0.17312078 0.021327177 1.3263172 4293989462
0.22028953 0.013766952 1.3251667 4293989462
0.25009283 0.00090566528 1.337 4293989462
-0.22790743 0.061343644 1.3187895 4293989462
-0.072673947 0.071981065 1.3174871 4293989462
-0.029315673 0.062411305 1.3116705 4293989462
0.042148881 0.099229679 1.3040001 4293989462
0.078065045 0.092506863 1.3204285 4293989462
0.10035294 0.084166206 1.3340001 4293989462
0.17241569 0.053230468 1.3412501 4293989462
-0.073198788 0.11684532 1.3186668 4293989462
-0.025060033 0.11233306 1.3230838 4293989462
0.023139199 0.10817667 1.3242146 4293989462
0.061557092 0.10390837 1.3360001 4293989462
-0.20687199 0.18888365 1.3025 4293989462
-0.17768815 0.19573715 1.3144 4293989462
-0.086124614 0.17912084 1.323532 4293989462
0.085971944 0.19250949 1.3386002 4293989462
0.11270902 0.18755369 1.337549 4293989462
-0.16046767 0.20541425 1.3327777 4293989462
-0.11789595 0.22509067 1.324491 4293989462
-0.089970998 0.22489396 1.3323737 4293989462
-0.01137673 0.23674779 1.33939 4293989462
0.026542095 0.22478238 1.3350683 4293989462
0.071519375 0.2188587 1.3316163 4293989462
0.10987723 0.20859878 1.3360769 4293989462
-0.10158323 0.25422555 1.3435 4293989462
-0.073568583 0.27448303 1.3255626 4293989462
-0.0200621 0.27427262 1.3210938 4293989462
0.0089560393 0.26481792 1.3431816 4293989462
-0.062060088 0.30891645 1.3336776 4293989462
-0.028453061 0.3124688 1.3198934 4293989462
0.0032373581 0.30499977 1.344 4293989462
-0.34561148 -0.20200957 1.3690001 4293989462
-0.34813604 -0.18555366 1.3790001 4293989462
-0.30981097 -0.11942108 1.3631958 4293989462
-0.29215014 -0.11560699 1.3545003 4293989462
-0.28529814 -0.072401434 1.3582693 4293989462
0.23656671 -0.05767896 1.3808531 4293989462
0.26342925 -0.056492697 1.3601669 4293989462
0.18859614 -0.039659623 1.3693531 4293989462
0.22213569 -0.043534756 1.3715595 4293989462
0.26898491 -0.039868474 1.3653258 4293989462
-0.077604622 0.039781094 1.3551054 4293989462
0.13256012 0.027585702 1.3587729 4293989462
0.19282992 0.04079609 1.3571767 4293989462
0.22599706 0.036272444 1.3678005 4293989462
0.25219384 0.023455694 1.3755715 4293989462
-0.072162263 0.052451696 1.3533572 4293989462
0.093324654 0.09625192 1.3577501 4293989462
0.10467423 0.093105376 1.3778571 4293989462
0.19165611 0.065412015 1.3716737 4293989462
0.22110233 0.072751075 1.3833656 4293989462
-0.069359496 0.13070908 1.3742424 4293989462
-0.023865037 0.12653898 1.3731389 4293989462
0.026539965 0.1236743 1.3764896 4293989462
0.0807724 0.1248043 1.3867933 4293989462
0.12255073 0.14215223 1.3905935 4293989462
0.1732579 0.13922743 1.3947498 4293989462
0.21738228 0.12727359 1.3950607 4293989462
-0.071957663 0.18407023 1.3786973 4293989462
-0.018531952 0.1889257 1.3859111 4293989462
0.026613271 0.18233636 1.3738992 4293989462
0.073517516 0.17324127 1.3754826 4293989462
0.12519598 0.1685486 1.3738002 4293989462
0.15344732 0.15611079 1.3940001 4293989462
0.21953535 0.15353714 1.3970001 4293989462
-0.20585375 0.20651545 1.363 4293989462
-0.17131627 0.21507187 1.3746843 4293989462
-0.131475 0.23900357 1.3702692 4293989462
-0.066107929 0.22430253 1.3674146 4293989462
-0.027992619 0.21933015 1.363701 4293989462
0.015562398 0.20511888 1.3525 4293989462
0.08435677 0.2352667 1.3604518 4293989462
0.1196068 0.22579381 1.376115 4293989462
-0.1109874 0.27189812 1.3771163 4293989462
-0.06895142 0.2658478 1.3722949 4293989462
-0.040667612 0.2590352 1.3687588 4293989462
0.029055838 0.2778174 1.3717617 4293989462
0.072671317 0.26830184 1.3761758 4293989462
0.10207195 0.26002231 1.3943334 4293989462
-0.10816279 0.30862421 1.387579 4293989462
-0.07648284 0.32030311 1.3700001 4293989462
-0.02359131 0.3377004 1.3688287 4293989462
0.017836761 0.3078638 1.3786176 4293989462
-0.036452081 0.35184079 1.391 4293989462
0.19690181 -0.053818744 1.404 4293989462
0.21181691 -0.056746095 1.4030625 4293989462
0.13819359 0.0978356 1.4327143 4293989462
0.17727858 0.093675479 1.4258049 4293989462
0.2287522 0.094057053 1.4055295 4293989462
-0.065395907 0.14334108 1.4179394 4293989462
-0.024207851 0.14256483 1.4141254 4293989462
0.026612652 0.14105184 1.4071583 4293989462
0.071521565 0.13412674 1.4034859 4293989462
0.12705097 0.11994711 1.4218129 4293989462
0.17593625 0.11942428 1.4202 4293989462
0.22256432 0.12132562 1.4046327 4293989462
-0.065291837 0.16895245 1.4175506 4293989462
-0.027582489 0.16682181 1.413041 4293989462
0.023598926 0.15728684 1.4053966 4293989462
0.059038367 0.15311296 1.4020002 4293989462
0.14800729 0.18689913 1.4020001 4293989462
0.17263283 0.16781147 1.4245714 4293989462
0.21573113 0.17401519 1.4182563 4293989462
-0.20690593 0.22069415 1.432 4293989462
-0.1709909 0.23200735 1.4228697 4293989462
-0.1468153 0.24459662 1.4087501 4293989462
0.13855611 0.23418449 1.4172792 4293989462
0.15296443 0.22256067 1.4411112 4293989462
0.21769506 0.22003387 1.4360733 4293989462
-0.15210286 0.25590175 1.4415001 4293989462
-0.12831591 0.27375275 1.4209645 4293989462
0.047096867 0.29971743 1.401 4293989462
0.061098706 0.29656971 1.415 4293989462
0.12604402 0.26458624 1.4190749 4293989462
0.16143598 0.26278901 1.4443002 4293989462
0.20644091 0.25562733 1.44525 4293989462
-0.17170428 0.31965819 1.4406667 4293989462
-0.1296856 0.31538698 1.4233382 4293989462
-0.08164449 0.33744392 1.4181179 4293989462
-0.00027375424 0.34414351 1.4265001 4293989462
0.034340695 0.31564048 1.4202499 4293989462
0.056256048 0.30514008 1.4298 4293989462
-0.058229037 0.35885614 1.4276001 4293989462
-0.024341872 0.36338136 1.4240001 4293989462
-0.32963282 -0.028466163 1.4706472 4293989462
-0.28525996 -0.024692062 1.4635 4293989462
-0.77840304 0.14885539 1.4960001 4293989462
0.6645472 0.12079919 1.4709338 4293989462
-0.76691437 0.18129608 1.4903328 4293989462
0.18500082 0.18637791 1.4670546 4293989462
-0.74550939 0.23140031 1.4954288 4293989462
-0.20587061 0.23166367 1.4780002 4293989462
-0.18419725 0.24061464 1.4660767 4293989462
0.17161117 0.2189949 1.4772915 4293989462
0.21043906 0.22781605 1.4686135 4293989462
-0.7658667 0.25087506 1.4960002 4293989462
-0.7414425 0.25001046 1.4960001 4293989462
-0.16287892 0.26043698 1.4779 4293989462
-0.13536669 0.28358963 1.4649091 4293989462
0.147338 0.2828604 1.4745001 4293989462
0.17936338 0.2614229 1.4621665 4293989462
0.67147684 0.26864445 1.4753333 4293989462
-0.20468298 0.32954621 1.4690001 4293989462
-0.17481904 0.33334449 1.4646249 4293989462
-0.13365996 0.32924968 1.469808 4293989462
0.064619742 0.31593692 1.479 4293989462
0.7409147 -0.39067477 1.5173531 4293989462
0.76381272 -0.38827646 1.5117501 4293989462
0.72833067 -0.31368306 1.5259311 4293989462
0.76600033 -0.3306376 1.5181819 4293989462
0.64244974 -0.18329298 1.5144001 4293989462
0.65688258 -0.19397601 1.5243001 4293989462
0.31863815 -0.054097921 1.5140001 4293989462
-0.35802996 -0.022688344 1.52 4293989462
-0.32640496 -0.02609415 1.5212858 4293989462
-0.28726581 -0.018555889 1.5046668 4293989462
-0.79719537 0.090838701 1.5377274 4293989462
-0.28125307 0.076931901 1.5360001 4293989462
0.675551 0.086949565 1.5207779 4293989462
-0.78722537 0.12808797 1.5288942 4293989462
-0.74816132 0.19862306 1.5136 4293989462
0.68220967 0.17345366 1.5220002 4293989462
-0.75317752 0.20386717 1.5000001 4293989462
-0.73488712 0.22617705 1.518711 4293989462
-0.21521138 0.24249399 1.5303334 4293989462
0.20379306 0.23889291 1.5214118 4293989462
0.68225455 0.22576806 1.5241667 4293989462
-0.76936793 0.27396303 1.5135642 4293989462
-0.73164678 0.26939574 1.5094045 4293989462
0.42638066 0.55902237 1.5216086 4293989462
0.47542042 0.56640762 1.5246335 4293989462
-0.21380322 0.60128301 1.5489999 4293989462
-0.15539122 0.60128301 1.549 4293989462
-0.10503602 0.60128301 1.5490001 4293989462
0.77439499 -0.60302263 1.5941429 4293989462
0.73946607 -0.51778328 1.5603334 4293989462
0.77469063 -0.52652508 1.5665083 4293989462
0.73362213 -0.48412433 1.5813961 4293989462
0.73192835 -0.41942605 1.570058 4293989462
0.77225512 -0.43707082 1.5753063 4293989462
0.8098408 -0.44371054 1.5825001 4293989462
0.73379737 -0.39822969 1.56275 4293989462
0.76753706 -0.39085788 1.578909 4293989462
0.7707957 -0.34055117 1.5696156 4293989462
0.69141173 -0.27220306 1.5723335 4293989462
0.70159209 -0.23772986 1.5970001 4293989462
-0.76555049 -0.17243728 1.5967144 4293989462
-0.80752766 -0.10805249 1.5964288 4293989462
0.10352467 0.49116477 1.5970001 4293989462
0.68825251 0.48908764 1.576575 4293989462
0.074732028 0.52209747 1.5739783 4293989462
0.11288971 0.54448086 1.5749546 4293989462
0.43335265 0.54464978 1.5815923 4293989462
0.47256562 0.54171461 1.5892371 4293989462
0.52492851 0.54319894 1.5805733 4293989462
0.573816 0.5456537 1.5872128 4293989462
0.66919607 0.52425843 1.5673616 4293989462
-0.81017649 0.59501565 1.5828003 4293989462
-0.79169917 0.59369516 1.5802727 4293989462
-0.32677668 0.59091014 1.5746593 4293989462
-0.27589086 0.57761711 1.5733333 4293989462
-0.85113531 -0.063018531 1.6440001 4293989462
-0.83268052 -0.027046254 1.6177598 4293989462
0.7141872 -0.025885748 1.6280527 4293989462
-0.81994623 0.023964141 1.6164062 4293989462
-0.73786587 0.038371231 1.6300757 4293989462
0.72058672 0.0070231422 1.6268002 4293989462
-0.77890754 0.073223002 1.6336602 4293989462
-0.74186105 0.054811344 1.6366155 4293989462
0.11646748 0.52823806 1.6297283 4293989462
0.37737283 0.54143757 1.6237127 4293989462
-0.4503336 0.59685355 1.6480001 4293989462
-0.71479738 0.23129907 1.672965 4293989462
0.63548404 -0.17997588 1.4734616 4278694479
-0.35654426 -0.022225624 1.4890001 4278694479
-0.26934743 0.068321727 1.4780002 4278694479
0.66249448 0.083532237 1.4722226 4278694479
0.66417402 0.17851885 1.4684167 4278694479
-0.76197821 0.2243907 1.489118 4278694479
0.73115438 -0.55839521 1.5405999 4278694479
0.77417213 -0.56167668 1.5311426 4278694479
0.72376406 -0.53214651 1.5363581 4278694479
0.69410998 -0.49180034 1.5195714 4278694479
0.70804918 -0.49389067 1.5410001 4278694479
0.73955429 -0.40822092 1.5328096 4278694479
0.77018905 -0.41212231 1.5284064 4278694479
0.70871764 -0.28218344 1.5160224 4278694479
0.68478352 -0.23155582 1.5218494 4278694479
0.70412511 -0.24767537 1.5020002 4278694479
0.68267709 -0.018710699 1.5180001 4278694479
-0.80255604 0.07739225 1.5450001 4278694479
0.054521348 0.48483926 1.5469999 4278694479
0.68162751 0.48169893 1.5268998 4278694479
-0.12333103 0.53623682 1.5312667 4278694479
-0.080609769 0.52627194 1.5189477 4278694479
-0.010892688 0.51748306 1.5249028 4278694479
0.024391467 0.5208537 1.5232483 4278694479
0.073076703 0.53856885 1.5295447 4278694479
0.11143821 0.54499716 1.528074 4278694479
0.17509171 0.5488196 1.5118093 4278694479
-0.31550109 0.58869696 1.5328711 4278694479
-0.27195296 0.58065718 1.526391 4278694479
-0.17592484 0.5779323 1.5438694 4278694479
-0.12002596 0.55312246 1.5450001 4278694479
-0.0013524265 0.56547713 1.5034546 4278694479
0.026169121 0.5759576 1.5304548 4278694479
0.16302846 0.56175196 1.517979 4278694479
0.32644859 0.57358241 1.5240434 4278694479
0.3733193 0.56748307 1.5239165 4278694479
0.61453778 0.55217499 1.5175385 4278694479
0.67874312 0.55395758 1.5160894 4278694479
0.70138144 0.55116755 1.5201668 4278694479
0.7712037 -0.58644217 1.5724856 4278694479
0.80440158 -0.59273821 1.5747501 4278694479
-0.80154526 0.10793924 1.5872223 4278694479
-0.79377484 0.13011223 1.5743243 4278694479
0.69480211 0.11841616 1.5708423 4278694479
0.69612926 0.17181988 1.5637501 4278694479
0.70456433 0.19277963 1.585 4278694479
-0.7517435 0.20228486 1.5790001 4278694479
0.1931573 0.24429159 1.5562003 4278694479
0.20164283 0.24741983 1.5530001 4278694479
0.69293392 0.23373833 1.5722501 4278694479
0.70371956 0.21529971 1.5884286 4278694479
-0.80920243 0.29779088 1.5630001 4278694479
-0.78203279 0.2961652 1.5690001 4278694479
-0.73493928 0.26904246 1.5733501 4278694479
-0.21231827 0.26249403 1.5830001 4278694479
-0.18559648 0.27619591 1.5713334 4278694479
0.18972787 0.27841967 1.5546 4278694479
-0.81225485 0.30807605 1.5860001 4278694479
-0.77437466 0.30902827 1.5714706 4278694479
-0.21196812 0.33855024 1.5856668 4278694479
0.068846077 0.33865565 1.5640001 4278694479
0.1768228 0.30365822 1.5723333 4278694479
0.69841731 0.32011852 1.5530001 4278694479
-0.12396066 0.38162458 1.5733846 4278694479
-0.089384839 0.39082745 1.5710001 4278694479
0.70590425 0.37496138 1.5872502 4278694479
-0.065960437 0.40834403 1.5766667 4278694479
0.69841731 0.4089725 1.5530001 4278694479
0.70649558 0.42876539 1.576 4278694479
0.026822254 0.47299448 1.5692581 4278694479
0.074139871 0.48749661 1.5735874 4278694479
-0.07368733 0.51493227 1.5750384 4278694479
0.04485289 0.51105434 1.5563846 4278694479
0.51456058 0.55142778 1.5589999 4278694479
0.60495037 0.55064309 1.5567501 4278694479
-0.81523442 0.60314548 1.5736251 4278694479
-0.78171331 0.60787505 1.5786451 4278694479
-0.4747653 0.61849219 1.5933336 4278694479
-0.42148909 0.61608398 1.593174 4278694479
-0.37580252 0.60649604 1.5830783 4278694479
-0.34632704 0.60279024 1.56075 4278694479
-0.15416913 0.60033917 1.557 4278694479
-0.13092022 0.60238415 1.5567896 4278694479
0.72495091 -0.61307609 1.6120001 4278694479
0.78952616 -0.61276418 1.6111666 4278694479
0.81616002 -0.6162957 1.6222668 4278694479
0.83359969 -0.53032035 1.615375 4278694479
0.74075454 -0.47089827 1.6072918 4278694479
0.76561129 -0.40408975 1.6278573 4278694479
0.7788654 -0.35391998 1.6335716 4278694479
0.82252979 -0.36378878 1.62675 4278694479
0.73625559 -0.31997976 1.6192502 4278694479
-0.81059861 -0.21366984 1.6355001 4278694479
-0.77484691 -0.21990612 1.6285769 4278694479
0.68975157 -0.21905674 1.6261767 4278694479
0.70777452 -0.23747626 1.6324002 4278694479
-0.81170619 -0.17294455 1.6257743 4278694479
-0.74304891 -0.18714954 1.6153487 4278694479
0.67715484 -0.19667338 1.618 4278694479
-0.8237105 -0.12227211 1.6209116 4278694479
-0.76722348 -0.12506898 1.6194688 4278694479
-0.76888353 -0.070671953 1.6130679 4278694479
-0.7472257 -0.08507558 1.603 4278694479
-0.85113531 -0.028814713 1.6440001 4278694479
-0.33044186 -0.020614162 1.6174999 4278694479
-0.7559604 0.20148349 1.6053333 4278694479
0.69992024 0.24575794 1.6220001 4278694479
-0.74338746 0.26441008 1.6235628 4278694479
-0.21089262 0.27733642 1.6277502 4278694479
0.714185 0.27202913 1.6244091 4278694479
-0.85431373 0.32644647 1.6460001 4278694479
-0.82234704 0.32495084 1.6281581 4278694479
-0.22514427 0.34250367 1.6010001 4278694479
0.72137105 0.33062106 1.6266499 4278694479
-0.21390004 0.38677055 1.6226 4278694479
0.037165593 0.37164921 1.6010001 4278694479
-0.079716615 0.41730392 1.6256667 4278694479
-0.00031097032 0.43635812 1.6204287 4278694479
-0.046784155 0.45522287 1.6245 4278694479
0.022554897 0.47483319 1.6203847 4278694479
0.12189197 0.48908341 1.6259604 4278694479
0.68392003 0.49446556 1.6235241 4278694479
-0.15057383 0.54788786 1.605 4278694479
-0.12174284 0.54236937 1.6273502 4278694479
-0.074427649 0.51864815 1.627143 4278694479
0.21998847 0.54253095 1.6324247 4278694479
0.27865571 0.54556519 1.6307904 4278694479
0.32469219 0.53997219 1.6241975 4278694479
0.6232444 0.51647127 1.621438 4278694479
0.65910113 0.50291181 1.6176 4278694479
0.85826445 -0.53385693 1.659 4278694479
0.80120039 -0.41269457 1.6750001 4278694479
0.77911431 -0.36147922 1.6736925 4278694479
0.85336131 -0.37878573 1.6791668 4278694479
0.7399627 -0.31411359 1.6720001 4278694479
-0.76643056 -0.25260475 1.6822501 4278694479
0.7223202 -0.26259628 1.6751113 4278694479
-0.82570267 -0.21382442 1.6530001 4278694479
-0.85956579 -0.1683142 1.6955715 4278694479
-0.83775824 -0.17611223 1.6621819 4278694479
-0.76176691 -0.16705024 1.6716316 4278694479
-0.86200106 -0.12829106 1.6751001 4278694479
-0.77111173 -0.076056696 1.6735263 4278694479
0.71671891 -0.05101642 1.6710001 4278694479
-0.33059344 -0.016250866 1.6710001 4278694479
-0.72805333 0.035643589 1.6742857 4278694479
-0.75998092 0.085126661 1.6662201 4278694479
0.71973836 0.088746615 1.6722859 4278694479
-0.76273853 0.12181125 1.6716273 4278694479
-0.74952638 0.13848725 1.6828001 4278694479
-0.7221483 0.17019682 1.6736746 4278694479
-0.69205457 0.18634337 1.682436 4278694479
-0.72987956 0.25919661 1.6835831 4278694479
0.27516645 0.53474629 1.6755239 4278694479
0.32610992 0.52594608 1.6761776 4278694479
0.47570366 0.50942522 1.6724188 4278694479
0.52552366 0.51007378 1.673068 4278694479
-0.86439037 0.57224798 1.6799152 4278694479
-0.47480249 0.59055197 1.6791669 4278694479
-0.32587957 0.58885926 1.675697 4278694479
-0.23061334 0.5833751 1.6796834 4278694479
0.14348792 0.55259651 1.6588334 4278694479
0.16011956 0.55355108 1.6624445 4278694479
0.70866787 -0.20923738 1.3897777 4291679905
0.70429748 -0.1935755 1.3812857 4291679905
0.73268783 -0.30358195 1.4325001 4291679905
0.72776127 -0.28005967 1.4367832 4291679905
0.68727994 -0.20717227 1.4318541 4291679905
0.71351111 -0.23038314 1.4231526 4291679905
0.62941855 -0.17331043 1.4210607 4291679905
0.67272806 -0.18926981 1.4194583 4291679905
0.20439053 0.54737961 1.444 4291679905
0.68633795 0.53118384 1.4300001 4291679905
-0.031131469 0.55452257 1.4381877 4291679905
0.19728756 0.55039972 1.447 4291679905
0.22300239 0.55604446 1.447 4291679905
0.26343113 0.55725163 1.4343481 4291679905
0.69533896 0.55860335 1.4438751 4291679905
0.70116735 0.55838966 1.4385 4291679905
0.74764597 -0.37975508 1.4940001 4291679905
0.75922334 -0.38176659 1.4951112 4291679905
0.70452482 0.36030555 1.4518332 4291679905
-0.019616399 0.42825592 1.4931332 4291679905
0.67676759 0.42517173 1.4742943 4291679905
-0.05623943 0.49605322 1.4765717 4291679905
-0.03338794 0.48149562 1.4817646 4291679905
0.67487866 0.4805961 1.471907 4291679905
-0.060848165 0.52139443 1.4777083 4291679905
-0.028753562 0.52523148 1.469232 4291679905
0.022508631 0.52581859 1.4915609 4291679905
0.1828222 0.54539257 1.4700001 4291679905
0.20910887 0.54616868 1.4682108 4291679905
0.69428843 0.5195592 1.4747648 4291679905
0.70501727 0.52947104 1.4868668 4291679905
-0.054784242 0.56464303 1.4838825 4291679905
-0.018903483 0.56113631 1.4723777 4291679905
0.17616841 0.56581914 1.4794998 4291679905
0.22743955 0.56165898 1.4644738 4291679905
0.27499855 0.56240207 1.471489 4291679905
0.32546288 0.57980192 1.4904642 4291679905
0.3786895 0.5728457 1.4842497 4291679905
0.4219217 0.57190639 1.4873576 4291679905
0.20357139 0.26320782 1.5271667 4291679905
0.68971592 0.26669902 1.5324287 4291679905
-0.76276183 0.30122307 1.539 4291679905
-0.74183977 0.30004871 1.5330001 4291679905
-0.21128936 0.33329457 1.5235001 4291679905
-0.17424396 0.32490852 1.5202308 4291679905
-0.14558835 0.30806661 1.5235001 4291679905
0.038260095 0.34551051 1.5182501 4291679905
0.059124697 0.33399156 1.524 4291679905
0.68792385 0.33237693 1.5296668 4291679905
-0.20969512 0.35596964 1.5335001 4291679905
-0.17129071 0.36007953 1.5230001 4291679905
-0.12684326 0.36330575 1.5236315 4291679905
-0.075968534 0.38223517 1.52425 4291679905
-0.030058902 0.3960728 1.5070001 4291679905
0.035587043 0.35187718 1.5330001 4291679905
0.68852133 0.37699687 1.5304667 4291679905
-0.056402259 0.4018048 1.5410001 4291679905
-0.02274164 0.42884952 1.5212034 4291679905
0.69194007 0.41442811 1.5179092 4291679905
-0.054389879 0.49687368 1.5132501 4291679905
-0.023239138 0.47737852 1.5191747 4291679905
0.021934994 0.48090917 1.5348878 4291679905
-0.15995735 0.54556602 1.5345554 4291679905
-0.77882993 -0.076618418 1.5914594 4291679905
-0.74680126 -0.084309764 1.5938001 4291679905
-0.80886334 -0.019571248 1.5891428 4291679905
-0.78781444 -0.02820502 1.5833869 4291679905
-0.35582584 -0.023591403 1.5805001 4291679905
-0.32451397 -0.022924626 1.5748571 4291679905
-0.29589182 -0.015142187 1.557 4291679905
0.69862616 -0.01520738 1.5625001 4291679905
0.70424938 -0.010890957 1.5826364 4291679905
-0.82541829 0.046689395 1.5943333 4291679905
-0.76587117 0.033719186 1.5945482 4291679905
0.70689785 0.0051825829 1.5810001 4291679905
-0.81108725 0.073470958 1.5788507 4291679905
-0.79836971 0.095251575 1.5577501 4291679905
0.69170392 0.086354971 1.5788465 4291679905
-0.77243334 0.17549345 1.5749021 4291679905
-0.095439337 0.58438402 1.5537274 4291679905
0.13799486 0.55404997 1.57575 4291679905
0.17569084 0.5556556 1.5764999 4291679905
0.22819477 0.56040514 1.5780833 4291679905
0.27682456 0.56145185 1.5764606 4291679905
0.32442015 0.55936605 1.5721097 4291679905
0.37415361 0.55768973 1.5732898 4291679905
0.41618642 0.5540331 1.5704284 4291679905
0.47811899 0.55418223 1.5675684 4291679905
0.57686049 0.55266112 1.563907 4291679905
-0.80220711 0.11488882 1.6168127 4291679905
-0.7840302 0.13078627 1.634524 4291679905
0.69918567 0.1051757 1.6010001 4291679905
0.70874441 0.12544169 1.6282421 4291679905
-0.77068824 0.17336521 1.6277308 4291679905
-0.72895372 0.18276502 1.6324047 4291679905
0.71569973 0.16851872 1.6234003 4291679905
-0.85332954 0.60248637 1.6400001 4291679905
-0.84118867 0.60230404 1.6166668 4291679905
-0.77230012 0.61567909 1.6246285 4291679905
-0.72565293 0.6223017 1.6305968 4291679905
-0.67440945 0.61894625 1.6275177 4291679905
-0.62611634 0.62133271 1.6269999 4291679905
-0.57410491 0.61217427 1.6270474 4291679905
-0.52469403 0.612257 1.627064 4291679905
0.0040244167 0.44108713 1.6707501 4291679905
0.72760892 0.42563859 1.673889 4291679905
-0.06527435 0.48029995 1.6800003 4291679905
0.023245193 0.48008537 1.6754401 4291679905
-0.9018721 -0.13926056 1.7420001 4291679905
-0.87945879 -0.14367935 1.7137501 4291679905
-0.78327012 -0.12984267 1.7232354 4291679905
-0.7901141 -0.072952397 1.7269287 4291679905
0.72347039 -0.057272676 1.7286668 4291679905
-0.793347 -0.025820471 1.7276818 4291679905
-0.35823122 -0.016941356 1.7420001 4291679905
-0.33962995 -0.013151208 1.7212002 4291679905
0.73837668 -0.016005801 1.725 4291679905
-0.73336273 0.030780027 1.71875 4291679905
-0.87322003 0.52349269 1.7129993 4291679905
-0.82779914 0.52147967 1.721855 4291679905
-0.79745346 0.51248443 1.7444999 4291679905
-0.2002424 0.54638463 1.7470001 4291679905
-0.16874696 0.5376721 1.7313182 4291679905
-0.12950876 0.51463443 1.721182 4291679905
-0.090734944 0.50334156 1.7211335 4291679905
0.036011491 0.50095123 1.7470001 4291679905
0.07413169 0.50112051 1.7345003 4291679905
-0.70437402 0.22660109 1.7869002 4291679905
-0.69651359 0.22868687 1.7582501 4291679905
0.7474376 0.22687961 1.7532501 4291679905
-0.76261783 0.29594058 1.7681001 4291679905
-0.72062367 0.28094521 1.7731668 4291679905
-0.26335686 0.29216468 1.7900001 4291679905
