# .PCD v0.7 - Point Cloud Data file format
VERSION 0.7
FIELDS x y z
SIZE 4 4 4
TYPE F F F
COUNT 1 1 1
WIDTH 1490
HEIGHT 1
VIEWPOINT 0 0 0 1 0 0 0
POINTS 1490
DATA ascii
0.62974155 -0.27787104 2.286
0.63568664 -0.27787104 2.286
0.64163178 -0.27787104 2.286
0.64757681 -0.27787104 2.286
0.65352196 -0.27787104 2.286
0.65946704 -0.27787104 2.286
0.66541213 -0.27787104 2.286
0.67135721 -0.27787104 2.286
0.67730236 -0.27787104 2.286
0.68324739 -0.27787104 2.286
0.68919253 -0.27787104 2.286
0.69513762 -0.27787104 2.286
0.70108271 -0.27787104 2.286
0.70702779 -0.27787104 2.286
0.71546805 -0.27884349 2.2940001
0.72426432 -0.27993748 2.3030002
0.73279035 -0.2809099 2.3110001
0.74167764 -0.28200388 2.3200002
0.75351238 -0.28419182 2.3380001
0.76836467 -0.28747377 2.365
0.78663248 -0.29197124 2.4020002
0.81169438 -0.29889977 2.4590001
0.83139712 -0.30376193 2.4990001
0.85901952 -0.31141979 2.562
0.88798338 -0.3194423 2.628
0.92239791 -0.32928813 2.7090001
0.95448899 -0.33816153 2.7820001
0.9793545 -0.34436077 2.8330002
1.0055301 -0.35092464 2.8870001
1.0274249 -0.35590833 2.9280002
1.0449376 -0.35931182 2.9560001
1.0576104 -0.36101356 2.97
1.0757366 -0.36453861 2.9990001
1.0784779 -0.36283687 2.9850001
1.0756878 -0.35931182 2.9560001
1.0731133 -0.35590833 2.9280002
1.0703932 -0.35250482 2.9000001
1.0582348 -0.34606251 2.8470001
1.0461752 -0.33974171 2.7950001
1.030076 -0.33220541 2.733
1.0144135 -0.32491222 2.6730001
1.0041702 -0.3194423 2.628
0.99369311 -0.31397241 2.5830002
0.98414367 -0.30886716 2.5410001
0.96657777 -0.30133083 2.4790001
0.95025933 -0.29428074 2.421
0.93442953 -0.28747377 2.365
0.91592222 -0.27993748 2.3030002
0.89509082 -0.27179337 2.2360001
0.85400468 -0.25599146 2.1060002
0.8121407 -0.24189125 1.9900001
0.77706629 -0.22997901 1.8920001
0.74520195 -0.21916077 1.8030001
0.67715484 -0.19667338 1.618
0.65230584 -0.1882862 1.549
0.6402331 -0.18366717 1.511
0.63606268 -0.18135767 1.4920001
0.63393807 -0.17965591 1.478
0.63001448 -0.17746794 1.46
0.62643147 -0.17540154 1.4430001
0.62450689 -0.17382134 1.4300001
0.62383264 -0.17260581 1.4200001
0.62443215 -0.17175494 1.4130001
0.62543976 -0.17102562 1.4070001
0.62775749 -0.17066096 1.404
0.63005966 -0.1702963 1.401
0.63370311 -0.1702963 1.401
0.63552701 -0.16981009 1.3970001
0.6391601 -0.16981009 1.3970001
0.64279324 -0.16981009 1.3970001
0.64642632 -0.16981009 1.3970001
0.64866346 -0.16944543 1.3940001
0.65088499 -0.16908076 1.391
0.65309095 -0.1687161 1.388
0.65528131 -0.16835146 1.3850001
0.65745604 -0.16798678 1.3820001
0.66105008 -0.16798678 1.3820001
0.66320145 -0.16762212 1.3790001
0.66485363 -0.16713592 1.3750001
0.66697115 -0.16677125 1.3720001
0.66760683 -0.16604193 1.3660001
0.66821134 -0.1653126 1.36
0.66878462 -0.1645833 1.3540001
0.66783708 -0.16348931 1.345
0.66734189 -0.16251688 1.337
0.66630334 -0.16142291 1.3280001
0.666731 -0.16069357 1.322
0.66611362 -0.15972115 1.314
0.66647369 -0.15899184 1.3080001
0.66833889 -0.15862717 1.3050001
-1.080725 -0.24956283 2.098
-1.0332422 -0.23980871 2.016
-0.97343779 -0.22708076 1.909
-0.83652914 -0.19817527 1.6660001
-0.81671137 -0.19448772 1.6350001
-0.80599934 -0.19294134 1.6220001
-0.79584932 -0.19151391 1.6100001
-0.78920358 -0.19091913 1.605
-0.78502959 -0.19091913 1.605
-0.7789095 -0.19044332 1.6010001
-0.77668148 -0.19091913 1.605
-0.77250743 -0.19091913 1.605
-0.76641858 -0.19044332 1.6010001
-0.76035047 -0.18996753 1.5970001
-0.75619721 -0.18996753 1.5970001
-0.75204396 -0.18996753 1.5970001
-0.74789077 -0.18996753 1.5970001
-0.74560028 -0.19044332 1.6010001
-0.74143666 -0.19044332 1.6010001
-0.74141759 -0.19151391 1.6100001
-0.73906219 -0.19198972 1.6140001
-0.73668587 -0.19246551 1.618
-0.73428893 -0.19294134 1.6220001
-0.73817253 -0.19508249 1.6400001
-0.74375254 -0.19769944 1.6620001
-0.75366724 -0.20150594 1.6940001
-0.78597283 -0.21137901 1.7770001
-0.96227461 -0.26502669 2.2280002
-0.99597597 -0.27597034 2.3200002
-1.0129842 -0.28239378 2.3740001
-1.018685 -0.28572449 2.4020002
-1.0162317 -0.28679502 2.411
-1.0141504 -0.28798455 2.421
-1.0157639 -0.29024467 2.4400001
-1.0214155 -0.29369429 2.4690001
-1.0191054 -0.29488382 2.4790001
-1.0167434 -0.29607335 2.4890001
-1.0062114 -0.29488382 2.4790001
-0.99976438 -0.29488382 2.4790001
-0.98530346 -0.29250479 2.4590001
-0.97532564 -0.2914342 2.45
-0.96499908 -0.29024467 2.4400001
-0.95472461 -0.28905514 2.4300001
-0.94489235 -0.28798455 2.421
-0.93859619 -0.28798455 2.421
-0.92844909 -0.28679502 2.411
-0.92217898 -0.28679502 2.411
-0.91590875 -0.28679502 2.411
-0.90624309 -0.28572449 2.4020002
-0.89624941 -0.28453496 2.3920002
-0.88667989 -0.28346437 2.3830001
-0.87715709 -0.28239378 2.3740001
-0.87098318 -0.28239378 2.3740001
-0.8615306 -0.28132319 2.365
-0.85538012 -0.28132319 2.365
-0.84599787 -0.28025267 2.3560002
-0.83987075 -0.28025267 2.3560002
-0.83374357 -0.28025267 2.3560002
-0.8244549 -0.27918208 2.3470001
-0.81835115 -0.27918208 2.3470001
-0.8091327 -0.27811149 2.3380001
-0.79686975 -0.27597034 2.3200002
-0.78504139 -0.27394816 2.3030002
-0.77600753 -0.27287757 2.2940001
-0.76735622 -0.27192593 2.286
-0.75841343 -0.2708554 2.2770002
-0.75546598 -0.27192593 2.286
-0.74952084 -0.27192593 2.286
-0.74617803 -0.27287757 2.2940001
-0.74569756 -0.27489978 2.3110001
-0.74256814 -0.27597034 2.3200002
-0.73939174 -0.2770409 2.329
-0.73900259 -0.27918208 2.3470001
-0.73570925 -0.28025267 2.3560002
-0.73515618 -0.28239378 2.3740001
-0.73174584 -0.28346437 2.3830001
-0.72554851 -0.28346437 2.3830001
-0.71663427 -0.28239378 2.3740001
-0.71046036 -0.28239378 2.3740001
-0.70161635 -0.28132319 2.365
-0.6928193 -0.28025267 2.3560002
-0.68406892 -0.27918208 2.3470001
-0.67536539 -0.27811149 2.3380001
-0.66670865 -0.2770409 2.329
-0.65554583 -0.27489978 2.3110001
-0.64728725 -0.27394816 2.3030002
-0.6387918 -0.27287757 2.2940001
-0.63061899 -0.27192593 2.286
-0.62467384 -0.27192593 2.286
-0.61629289 -0.2708554 2.2770002
-0.6058141 -0.26883316 2.26
-0.31524935 -0.15832609 1.3310001
-0.31178787 -0.15832609 1.3310001
-0.30832639 -0.15832609 1.3310001
-0.30486494 -0.15832609 1.3310001
-0.30072412 -0.15796924 1.3280001
-0.29659888 -0.15761237 1.325
-0.29248926 -0.15725552 1.322
-0.2890512 -0.15725552 1.322
-0.28496501 -0.15689865 1.319
-0.28110784 -0.15666075 1.317
-0.27705026 -0.15630388 1.314
-0.27300829 -0.15594704 1.3110001
-0.26898187 -0.15559018 1.3080001
-0.26395586 -0.15463856 1.3000001
-0.25937235 -0.15392484 1.294
-0.25442436 -0.1529732 1.286
-0.24951802 -0.1520216 1.2780001
-0.24426797 -0.15083206 1.268
-0.23849985 -0.14928569 1.2550001
-0.23336162 -0.14809614 1.245
-0.22864512 -0.14714454 1.2370001
-0.22415243 -0.14631186 1.23
-0.21915725 -0.14512233 1.22
-0.21474521 -0.14428967 1.2130001
-0.2110673 -0.1439328 1.21
-0.20723318 -0.143457 1.2060001
-0.20409678 -0.143457 1.2060001
-0.2009604 -0.143457 1.2060001
-0.197824 -0.143457 1.2060001
-0.19420332 -0.14310014 1.2030001
-0.19155122 -0.143457 1.2060001
-0.18841484 -0.143457 1.2060001
-0.18527845 -0.143457 1.2060001
-0.18214205 -0.143457 1.2060001
-0.17900567 -0.143457 1.2060001
-0.17543179 -0.14310014 1.2030001
-0.1723032 -0.14310014 1.2030001
-0.16917461 -0.14310014 1.2030001
-0.16576996 -0.14286225 1.2010001
-0.16264659 -0.14286225 1.2010001
-0.15925753 -0.14262432 1.199
-0.15613934 -0.14262432 1.199
-0.15302117 -0.14262432 1.199
-0.14990298 -0.14262432 1.199
-0.1467848 -0.14262432 1.199
-0.14366661 -0.14262432 1.199
-0.14078288 -0.14286225 1.2010001
-0.13788873 -0.14310014 1.2030001
-0.13532025 -0.14369491 1.2080001
-0.13272575 -0.14428967 1.2130001
-0.12978479 -0.14452757 1.215
-0.12693764 -0.14488444 1.2180001
-0.12397328 -0.14512233 1.22
-0.12129556 -0.1457171 1.225
-0.11810976 -0.1457171 1.225
-0.1151116 -0.14595501 1.2270001
-0.1119206 -0.14595501 1.2270001
-0.10899542 -0.14631186 1.23
-0.10579662 -0.14631186 1.23
-0.10259782 -0.14631186 1.23
-0.099399008 -0.14631186 1.23
-0.096200205 -0.14631186 1.23
-0.093001395 -0.14631186 1.23
-0.089802593 -0.14631186 1.23
-0.086603783 -0.14631186 1.23
-0.083404981 -0.14631186 1.23
-0.080010556 -0.14595501 1.2270001
-0.076819554 -0.14595501 1.2270001
-0.073628552 -0.14595501 1.2270001
-0.07032273 -0.1457171 1.225
-0.067136928 -0.1457171 1.225
-0.063951127 -0.1457171 1.225
-0.060616508 -0.14536023 1.222
-0.057438508 -0.14536023 1.222
-0.054171704 -0.14512233 1.22
-0.050915301 -0.14488444 1.2180001
-0.047747709 -0.14488444 1.2180001
-0.044470306 -0.14452757 1.215
-0.041310512 -0.14452757 1.215
-0.038087916 -0.14428967 1.2130001
-0.034846924 -0.1439328 1.21
-0.031700131 -0.1439328 1.21
-0.028506143 -0.14369491 1.2080001
-0.025364552 -0.14369491 1.2080001
-0.022259753 -0.1439328 1.21
-0.01911296 -0.1439328 1.21
-0.016005754 -0.14428967 1.2130001
-0.01285116 -0.14428967 1.2130001
-0.0096965656 -0.14428967 1.2130001
-0.0033873767 -0.14428967 1.2130001
-0.00023182272 -0.14369491 1.2080001
0.0028977245 -0.14310014 1.2030001
0.0059812278 -0.14202955 1.194
0.0090331389 -0.14119689 1.187
0.012048641 -0.14036423 1.1800001
0.014976488 -0.13905574 1.169
0.017816298 -0.13750936 1.156
0.020624517 -0.13620089 1.1450001
0.023519812 -0.13572507 1.141
0.026487159 -0.13572507 1.141
0.029454507 -0.13572507 1.141
0.032478683 -0.13596296 1.143
0.035513267 -0.13620089 1.1450001
0.038692713 -0.1369146 1.151
0.042012025 -0.13798517 1.1600001
0.045378145 -0.13905574 1.169
0.048708238 -0.13988841 1.176
0.051854651 -0.14012633 1.1780001
0.055011459 -0.14036423 1.1800001
0.058326334 -0.14095899 1.1850001
0.061511751 -0.14119689 1.187
0.064598732 -0.14119689 1.187
0.067799747 -0.14143479 1.189
0.071070798 -0.14179166 1.192
0.25948188 -0.29726288 2.4990001
0.26598093 -0.29726288 2.4990001
0.27247995 -0.29726288 2.4990001
0.27897897 -0.29726288 2.4990001
0.28547803 -0.29726288 2.4990001
0.29326227 -0.29857138 2.5100002
0.30098432 -0.29976091 2.5200002
0.30753797 -0.29976091 2.5200002
0.31409162 -0.29976091 2.5200002
0.32064527 -0.29976091 2.5200002
0.32590052 -0.29857138 2.5100002
0.33242819 -0.29857138 2.5100002
0.33747032 -0.29726288 2.4990001
0.34396937 -0.29726288 2.4990001
0.35201111 -0.29857138 2.5100002
0.3599672 -0.29976091 2.5200002
0.36957517 -0.30225891 2.5410001
0.38092089 -0.30606538 2.5730002
0.39243302 -0.30987185 2.605
0.42381516 -0.29857138 2.5100002
0.42502779 -0.29488382 2.4790001
0.42799377 -0.29250479 2.4590001
0.43615532 -0.29369429 2.4690001
0.4407838 -0.29250479 2.4590001
0.45081589 -0.29488382 2.4790001
0.4572629 -0.29488382 2.4790001
0.46558049 -0.29607335 2.4890001
0.47395006 -0.29726288 2.4990001
0.48256397 -0.29857138 2.5100002
0.49104017 -0.29976091 2.5200002
0.49759382 -0.29976091 2.5200002
0.5021469 -0.29857138 2.5100002
0.51070112 -0.29976091 2.5200002
0.51520216 -0.29857138 2.5100002
0.51944333 -0.29726288 2.4990001
0.52594239 -0.29726288 2.4990001
0.53031081 -0.29607335 2.4890001
0.5346272 -0.29488382 2.4790001
0.53889161 -0.29369429 2.4690001
0.54310399 -0.29250479 2.4590001
0.5474878 -0.2914342 2.45
0.55159873 -0.29024467 2.4400001
0.55359966 -0.28798455 2.421
0.55758321 -0.28679502 2.411
0.55940998 -0.28453496 2.3920002
0.56350249 -0.28346437 2.3830001
0.56754822 -0.28239378 2.3740001
0.57154715 -0.28132319 2.365
0.5754993 -0.28025267 2.3560002
0.57940459 -0.27918208 2.3470001
0.58550835 -0.27918208 2.3470001
0.58934337 -0.27811149 2.3380001
0.59313166 -0.2770409 2.329
0.59687316 -0.27597034 2.3200002
0.60056782 -0.27489978 2.3110001
0.60657793 -0.27489978 2.3110001
0.61046749 -0.27394816 2.3030002
0.61404771 -0.27287757 2.2940001
0.62001359 -0.27287757 2.2940001
0.62379646 -0.27192593 2.286
0.62974155 -0.27192593 2.286
0.63568664 -0.27192593 2.286
0.64163178 -0.27192593 2.286
0.64502734 -0.2708554 2.2770002
0.65094906 -0.2708554 2.2770002
0.65687072 -0.2708554 2.2770002
0.66279244 -0.2708554 2.2770002
0.66871411 -0.2708554 2.2770002
0.67463583 -0.2708554 2.2770002
0.68055749 -0.2708554 2.2770002
0.68647921 -0.2708554 2.2770002
0.69240087 -0.2708554 2.2770002
0.69832259 -0.2708554 2.2770002
0.70424426 -0.2708554 2.2770002
0.71297294 -0.27192593 2.286
0.72426432 -0.27394816 2.3030002
0.7302537 -0.27394816 2.3030002
0.74167764 -0.27597034 2.3200002
0.75351238 -0.27811149 2.3380001
0.77128869 -0.28239378 2.3740001
0.78957981 -0.28679502 2.411
0.80872357 -0.2914342 2.45
0.83139712 -0.29726288 2.4990001
0.8553313 -0.30344844 2.5510001
0.88021183 -0.30987185 2.605
0.91422606 -0.31938809 2.6850002
0.94591171 -0.32795271 2.7570002
0.97486043 -0.33544672 2.8200002
1.000654 -0.34175122 2.8730001
1.0225123 -0.34662825 2.914
1.0449376 -0.35162428 2.9560001
1.0629519 -0.3550739 2.9850001
1.0807823 -0.3532896 2.97
1.0782442 -0.34995896 2.9420002
1.0807281 -0.3482936 2.9280002
1.0678991 -0.34175122 2.8730001
1.0555328 -0.33544672 2.8200002
1.0440215 -0.3294991 2.7700002
1.0280756 -0.32224295 2.7090001
1.0171618 -0.31665218 2.6620002
1.0021565 -0.30987185 2.605
0.98801672 -0.30344844 2.5510001
0.97047687 -0.29607335 2.4890001
0.95025933 -0.28798455 2.421
0.93442953 -0.28132319 2.365
0.91234285 -0.27287757 2.2940001
0.89509082 -0.26597831 2.2360001
0.88478947 -0.26122022 2.1960001
0.85968179 -0.2521798 2.1200001
0.81989479 -0.23897605 2.0090001
0.64556801 -0.18235454 1.5330001
0.63218254 -0.17747748 1.4920001
0.62711006 -0.17497948 1.4710001
0.62364411 -0.17295729 1.4540001
0.61836356 -0.17045927 1.4330001
0.61514443 -0.16855602 1.4170001
0.61315221 -0.16700964 1.404
0.61241037 -0.16582011 1.3940001
0.6120584 -0.16474955 1.3850001
0.61432678 -0.16439268 1.3820001
0.61657947 -0.16403583 1.3790001
0.62016577 -0.16403583 1.3790001
0.62194282 -0.16356002 1.3750001
0.62733841 -0.16403583 1.3790001
0.63229728 -0.16439268 1.3820001
0.63589138 -0.16439268 1.3820001
0.63948548 -0.16439268 1.3820001
0.64307958 -0.16439268 1.3820001
0.64526987 -0.16403583 1.3790001
0.64697415 -0.16356002 1.3750001
0.65055001 -0.16356002 1.3750001
0.65269876 -0.16320315 1.3720001
0.65626681 -0.16320315 1.3720001
0.65839213 -0.1628463 1.3690001
0.66050184 -0.16248943 1.3660001
0.66113752 -0.16177571 1.36
0.66174203 -0.161062 1.3540001
0.66231537 -0.16034828 1.348
0.66285741 -0.15963456 1.342
0.66237527 -0.15868296 1.3340001
0.66135228 -0.15761237 1.325
0.66078424 -0.15666075 1.317
0.65967035 -0.15559018 1.3080001
0.65901655 -0.15463856 1.3000001
0.6593402 -0.15392484 1.294
0.66014469 -0.15333007 1.289
-1.0554841 -0.23840541 2.049
-0.85953635 -0.19814759 1.7030001
-0.83201003 -0.1927954 1.6570001
-0.81471324 -0.18977024 1.631
-0.80401164 -0.18825766 1.618
-0.79584932 -0.18732685 1.6100001
-0.78920358 -0.18674508 1.605
-0.78502959 -0.18674508 1.605
-0.7789095 -0.18627968 1.6010001
-0.77668148 -0.18674508 1.605
-0.77250743 -0.18674508 1.605
-0.76641858 -0.18627968 1.6010001
-0.76035047 -0.18581428 1.5970001
-0.75619721 -0.18581428 1.5970001
-0.75204396 -0.18581428 1.5970001
-0.74976397 -0.18627968 1.6010001
-0.74560028 -0.18627968 1.6010001
-0.74328905 -0.18674508 1.605
-0.74325961 -0.18779226 1.6140001
-0.74089378 -0.18825766 1.618
-0.73850715 -0.18872307 1.6220001
-0.73836321 -0.18977024 1.631
-0.74402392 -0.19232999 1.6530001
-0.75180763 -0.1954715 1.6800001
-0.77279806 -0.20210357 1.7370001
-0.81428027 -0.21420418 1.8410001
-0.85829949 -0.22711927 1.9520001
-1.0014633 -0.27307832 2.3470001
-1.0029933 -0.27517265 2.365
-1.0006362 -0.27621984 2.3740001
-0.99823242 -0.27726701 2.3830001
-0.99994469 -0.27947772 2.4020002
-1.0052813 -0.28273556 2.4300001
-1.0030727 -0.28389907 2.4400001
-0.99672711 -0.28389907 2.4400001
-0.98632252 -0.28273556 2.4300001
-0.97637331 -0.28168836 2.421
-0.95845711 -0.27831417 2.3920002
-0.95223635 -0.27831417 2.3920002
-0.93889666 -0.27621984 2.3740001
-0.93272275 -0.27621984 2.3740001
-0.9195236 -0.27412552 2.3560002
-0.91339648 -0.27412552 2.3560002
-0.9072693 -0.27412552 2.3560002
-0.90114218 -0.27412552 2.3560002
-0.895015 -0.27412552 2.3560002
-0.88888788 -0.27412552 2.3560002
-0.87938851 -0.27307832 2.3470001
-0.86993599 -0.27203116 2.3380001
-0.86053026 -0.27098399 2.329
-0.85447335 -0.27098399 2.329
-0.84841639 -0.27098399 2.329
-0.83910441 -0.26993683 2.3200002
-0.83307087 -0.26993683 2.3200002
-0.82382905 -0.26888967 2.3110001
-0.81781888 -0.26888967 2.3110001
-0.81180882 -0.26888967 2.3110001
-0.80579865 -0.26888967 2.3110001
-0.79702002 -0.26795885 2.3030002
-0.78793931 -0.26691169 2.2940001
-0.77617854 -0.26493371 2.2770002
-0.76755059 -0.26400286 2.2690001
-0.76164973 -0.26400286 2.2690001
-0.75275111 -0.2629557 2.26
-0.74984795 -0.26400286 2.2690001
-0.74394703 -0.26400286 2.2690001
-0.74064839 -0.26493371 2.2770002
-0.73763067 -0.26598084 2.286
-0.73424625 -0.26691169 2.2940001
-0.73367733 -0.26888967 2.3110001
-0.73050106 -0.26993683 2.3200002
-0.72727793 -0.27098399 2.329
-0.72400808 -0.27203116 2.3380001
-0.71792769 -0.27203116 2.3380001
-0.71184742 -0.27203116 2.3380001
-0.70576704 -0.27203116 2.3380001
-0.69968677 -0.27203116 2.3380001
-0.69360638 -0.27203116 2.3380001
-0.68223292 -0.26993683 2.3200002
-0.67357618 -0.26888967 2.3110001
-0.66525519 -0.26795885 2.3030002
-0.65668947 -0.26691169 2.2940001
-0.64845425 -0.26598084 2.286
-0.6425091 -0.26598084 2.286
-0.63405794 -0.26493371 2.2770002
-0.62813628 -0.26493371 2.2770002
-0.62221456 -0.26493371 2.2770002
-0.61629289 -0.26493371 2.2770002
-0.60822666 -0.26400286 2.2690001
-0.60444951 -0.26493371 2.2770002
-0.59852779 -0.26493371 2.2770002
-0.59338349 -0.26795885 2.3030002
-0.31249064 -0.15521368 1.3340001
-0.30902135 -0.15521368 1.3340001
-0.30486494 -0.15486462 1.3310001
-0.30140346 -0.15486462 1.3310001
-0.29727045 -0.15451556 1.3280001
-0.29381678 -0.15451556 1.3280001
-0.2903631 -0.15451556 1.3280001
-0.28626129 -0.1541665 1.325
-0.28217506 -0.15381745 1.322
-0.27873701 -0.15381745 1.322
-0.27467421 -0.15346839 1.319
-0.27021572 -0.15288663 1.314
-0.26558021 -0.15218852 1.3080001
-0.26117635 -0.15160677 1.3030001
-0.25600711 -0.15055959 1.294
-0.25068945 -0.14939606 1.284
-0.24523117 -0.14811619 1.273
-0.24002016 -0.14695267 1.263
-0.23429883 -0.14544009 1.25
-0.22956932 -0.14450929 1.2420001
-0.22415243 -0.14311305 1.23
-0.21951653 -0.14218223 1.222
-0.21509928 -0.14136778 1.215
-0.2110673 -0.14078601 1.21
-0.20757684 -0.14055331 1.2080001
-0.20409678 -0.14032061 1.2060001
-0.2009604 -0.14032061 1.2060001
-0.197824 -0.14032061 1.2060001
-0.19468762 -0.14032061 1.2060001
-0.19155122 -0.14032061 1.2060001
-0.18841484 -0.14032061 1.2060001
-0.18527845 -0.14032061 1.2060001
-0.18214205 -0.14032061 1.2060001
-0.17900567 -0.14032061 1.2060001
-0.17586927 -0.14032061 1.2060001
-0.17273289 -0.14032061 1.2060001
-0.16917461 -0.13997155 1.2030001
-0.16604602 -0.13997155 1.2030001
-0.16264659 -0.13973886 1.2010001
-0.15925753 -0.13950613 1.199
-0.15613934 -0.13950613 1.199
-0.15302117 -0.13950613 1.199
-0.14990298 -0.13950613 1.199
-0.14641754 -0.13915709 1.1960001
-0.14330715 -0.13915709 1.1960001
-0.14054842 -0.13950613 1.199
-0.13765949 -0.13973886 1.2010001
-0.13509621 -0.14032061 1.2060001
-0.13239749 -0.14078601 1.21
-0.12925069 -0.14078601 1.21
-0.12662499 -0.14136778 1.215
-0.12377005 -0.14171684 1.2180001
-0.12080048 -0.14194953 1.22
-0.11762768 -0.14194953 1.22
-0.11464251 -0.14218223 1.222
-0.11146451 -0.14218223 1.222
-0.10855235 -0.14253129 1.225
-0.10536655 -0.14253129 1.225
-0.10218075 -0.14253129 1.225
-0.099156581 -0.142764 1.2270001
-0.095965579 -0.142764 1.2270001
-0.09277457 -0.142764 1.2270001
-0.089583568 -0.142764 1.2270001
-0.086603783 -0.14311305 1.23
-0.083404981 -0.14311305 1.23
-0.080206178 -0.14311305 1.23
-0.076819554 -0.142764 1.2270001
-0.073628552 -0.142764 1.2270001
-0.070609763 -0.14311305 1.23
-0.067246549 -0.142764 1.2270001
-0.06405554 -0.142764 1.2270001
-0.060765322 -0.14253129 1.225
-0.057579521 -0.14253129 1.225
-0.054260511 -0.14218223 1.222
-0.050998904 -0.14194953 1.22
-0.047826111 -0.14194953 1.22
-0.044580109 -0.14171684 1.2180001
-0.041412514 -0.14171684 1.2180001
-0.038150713 -0.14136778 1.215
-0.034933321 -0.14113507 1.2130001
-0.031778727 -0.14113507 1.2130001
-0.028553339 -0.14078601 1.21
-0.025469538 -0.14113507 1.2130001
-0.022314943 -0.14113507 1.2130001
-0.019160349 -0.14113507 1.2130001
-0.016032144 -0.14136778 1.215
-0.012872349 -0.14136778 1.215
-0.0097365342 -0.14171684 1.2180001
-0.0033929616 -0.14136778 1.215
0.0028977245 -0.13997155 1.2030001
0.0059812278 -0.13892438 1.194
0.0090331389 -0.13810992 1.187
0.012048641 -0.13729545 1.1800001
0.014912432 -0.13543382 1.164
0.017739238 -0.13392124 1.151
0.020552464 -0.13275772 1.141
0.023478586 -0.13252501 1.1390001
0.026394304 -0.13229232 1.1370001
0.029351249 -0.13229232 1.1370001
0.032365024 -0.13252501 1.1390001
0.035451233 -0.13299042 1.143
0.038558248 -0.13345584 1.1470001
0.041939594 -0.13473572 1.1580001
0.045378145 -0.13601558 1.169
0.048791081 -0.13706276 1.1780001
0.051942691 -0.13729545 1.1800001
0.055104695 -0.13752815 1.182
0.058326334 -0.13787721 1.1850001
0.061511751 -0.13810992 1.187
0.064598732 -0.13810992 1.187
0.067799747 -0.13834262 1.189
0.071190044 -0.13892438 1.194
0.25948188 -0.29076385 2.4990001
0.26598093 -0.29076385 2.4990001
0.27247995 -0.29076385 2.4990001
0.27897897 -0.29076385 2.4990001
0.28547803 -0.29076385 2.4990001
0.29326227 -0.29204375 2.5100002
0.30098432 -0.29320726 2.5200002
0.30753797 -0.29320726 2.5200002
0.31284523 -0.29204375 2.5100002
0.31937289 -0.29204375 2.5100002
0.32590052 -0.29204375 2.5100002
0.33242819 -0.29204375 2.5100002
0.33895582 -0.29204375 2.5100002
0.34548345 -0.29204375 2.5100002
0.35201111 -0.29204375 2.5100002
0.36139563 -0.29437077 2.5300002
0.37262949 -0.298094 2.562
0.38240135 -0.30053744 2.5830002
0.39409015 -0.30437705 2.6160002
0.40610385 -0.30833301 2.6500001
0.42381516 -0.29204375 2.5100002
0.42502779 -0.2884368 2.4790001
0.42799377 -0.28610978 2.4590001
0.43438879 -0.28610978 2.4590001
0.43917051 -0.28506258 2.45
0.44899735 -0.28727329 2.4690001
0.4572629 -0.2884368 2.4790001
0.46183938 -0.28727329 2.4690001
0.47015697 -0.2884368 2.4790001
0.47852653 -0.28960031 2.4890001
0.48694813 -0.29076385 2.4990001
0.49344718 -0.29076385 2.4990001
0.49994621 -0.29076385 2.4990001
0.50644523 -0.29076385 2.4990001
0.51294428 -0.29076385 2.4990001
0.51736474 -0.28960031 2.4890001
0.52383775 -0.28960031 2.4890001
0.52818018 -0.2884368 2.4790001
0.53247058 -0.28727329 2.4690001
0.53670895 -0.28610978 2.4590001
0.54310399 -0.28610978 2.4590001
0.5474878 -0.28506258 2.45
0.5493381 -0.28273556 2.4300001
0.55359966 -0.28168836 2.421
0.55758321 -0.28052485 2.411
0.56174862 -0.27947772 2.4020002
0.56350249 -0.27726701 2.3830001
0.56754822 -0.27621984 2.3740001
0.57154715 -0.27517265 2.365
0.5754993 -0.27412552 2.3560002
0.57940459 -0.27307832 2.3470001
0.58550835 -0.27307832 2.3470001
0.58934337 -0.27203116 2.3380001
0.59313166 -0.27098399 2.329
0.59918857 -0.27098399 2.329
0.6029067 -0.26993683 2.3200002
0.60447818 -0.26795885 2.3030002
0.61046749 -0.26795885 2.3030002
0.61404771 -0.26691169 2.2940001
0.62001359 -0.26691169 2.2940001
0.62379646 -0.26598084 2.286
0.62974155 -0.26598084 2.286
0.63568664 -0.26598084 2.286
0.63910568 -0.26493371 2.2770002
0.64502734 -0.26493371 2.2770002
0.65094906 -0.26493371 2.2770002
0.65687072 -0.26493371 2.2770002
0.66279244 -0.26493371 2.2770002
0.66636461 -0.26400286 2.2690001
0.67226553 -0.26400286 2.2690001
0.67816639 -0.26400286 2.2690001
0.68406731 -0.26400286 2.2690001
0.68996817 -0.26400286 2.2690001
0.69586909 -0.26400286 2.2690001
0.70424426 -0.26493371 2.2770002
0.71297294 -0.26598084 2.286
0.72426432 -0.26795885 2.3030002
0.7302537 -0.26795885 2.3030002
0.74167764 -0.26993683 2.3200002
0.75641298 -0.27307832 2.3470001
0.77128869 -0.27621984 2.3740001
0.78957981 -0.28052485 2.411
0.80872357 -0.28506258 2.45
0.82807016 -0.28960031 2.4890001
0.85197842 -0.29565063 2.5410001
0.87649506 -0.3018173 2.5940001
0.9101401 -0.31100911 2.6730001
0.94179451 -0.31938645 2.7450001
0.97071207 -0.32671663 2.8080001
0.99612612 -0.33276695 2.8600001
1.0449376 -0.34393674 2.9560001
1.0629519 -0.34731096 2.9850001
1.0757366 -0.34893987 2.9990001
1.083536 -0.34893987 2.9990001
1.0807823 -0.34556568 2.97
1.0885062 -0.34556568 2.97
1.0858954 -0.34230781 2.9420002
1.077935 -0.33742103 2.9000001
1.0656389 -0.33125436 2.8470001
1.0583438 -0.32671663 2.8080001
1.0213649 -0.31100911 2.6730001
1.0063883 -0.30437705 2.6160002
0.99653751 -0.29937389 2.5730002
0.9743759 -0.29076385 2.4990001
0.95379192 -0.28273556 2.4300001
0.93798554 -0.27621984 2.3740001
0.89829332 -0.26109406 2.2440002
0.88801271 -0.25643998 2.204
0.86576438 -0.24841167 2.135
0.83091378 -0.23689282 2.036
0.63293457 -0.17487717 1.503
0.61517322 -0.16789605 1.4430001
0.61206335 -0.16603442 1.427
0.60843867 -0.16405644 1.4100001
0.60385734 -0.16184574 1.391
0.60223424 -0.16044952 1.3790001
0.60010946 -0.15893693 1.3660001
0.60101038 -0.15823883 1.36
0.60188019 -0.15754072 1.3540001
0.60406011 -0.15719166 1.3510001
0.60757357 -0.15719166 1.3510001
0.61108708 -0.15719166 1.3510001
0.61596537 -0.15754072 1.3540001
0.62085921 -0.15788978 1.3570001
0.62714899 -0.15858789 1.363
0.63347006 -0.15928599 1.3690001
0.63703036 -0.15928599 1.3690001
0.64059067 -0.15928599 1.3690001
0.64415097 -0.15928599 1.3690001
0.64629185 -0.15893693 1.3660001
0.64984435 -0.15893693 1.3660001
0.65339684 -0.15893693 1.3660001
0.65550655 -0.15858789 1.363
0.65760064 -0.15823883 1.36
0.65822077 -0.15754072 1.3540001
0.65880966 -0.1568426 1.348
0.65936732 -0.15614448 1.342
0.65890598 -0.15521368 1.3340001
0.65939605 -0.15451556 1.3280001
0.65735924 -0.15323569 1.317
0.65626866 -0.15218852 1.3080001
0.65563565 -0.15125771 1.3000001
0.65496105 -0.15032689 1.2920001
0.6552639 -0.14962877 1.286
0.65758401 -0.14939606 1.284
-0.89643371 -0.20099877 1.7670001
-0.85701275 -0.19314992 1.6980001
-0.83000159 -0.18803111 1.6530001
-0.81471324 -0.18552858 1.631
-0.80401164 -0.1840498 1.618
-0.79584932 -0.1831398 1.6100001
-0.79166222 -0.1831398 1.6100001
-0.78502959 -0.18257102 1.605
-0.7789095 -0.18211603 1.6010001
-0.77668148 -0.18257102 1.605
-0.77250743 -0.18257102 1.605
-0.76833338 -0.18257102 1.605
-0.76225489 -0.18211603 1.6010001
-0.75619721 -0.18166102 1.5970001
-0.75204396 -0.18166102 1.5970001
-0.74976397 -0.18211603 1.6010001
-0.74746311 -0.18257102 1.605
-0.74560469 -0.1831398 1.6100001
-0.74325961 -0.18359479 1.6140001
-0.74272543 -0.18450481 1.6220001
-0.74078369 -0.18507357 1.6270001
-0.7424376 -0.18655235 1.6400001
-0.74987531 -0.18950988 1.6660001
-0.76210022 -0.19371867 1.7030001
-0.8666538 -0.22420405 1.9710001
-0.91092038 -0.23705797 2.0840001
-0.93417776 -0.24456556 2.1500001
-0.95190889 -0.25070813 2.204
-0.97408164 -0.25810197 2.2690001
-0.97884822 -0.26094577 2.2940001
-0.98009199 -0.26287955 2.3110001
-0.97787535 -0.26390332 2.3200002
-0.97938198 -0.26595083 2.3380001
-0.97704834 -0.2669746 2.3470001
-0.98211437 -0.27004588 2.3740001
-0.97964031 -0.27106965 2.3830001
-0.97344297 -0.27106965 2.3830001
-0.96359247 -0.27004588 2.3740001
-0.95015931 -0.26799837 2.3560002
-0.94042587 -0.2669746 2.3470001
-0.93073934 -0.26595083 2.3380001
-0.92109954 -0.26492706 2.329
-0.90797067 -0.26287955 2.3110001
-0.89883822 -0.26196954 2.3030002
-0.89284891 -0.26196954 2.3030002
-0.8868596 -0.26196954 2.3030002
-0.88393021 -0.26287955 2.3110001
-0.87792003 -0.26287955 2.3110001
-0.87190998 -0.26287955 2.3110001
-0.86290234 -0.26196954 2.3030002
-0.85356426 -0.26094577 2.2940001
-0.84759837 -0.26094577 2.2940001
-0.84163249 -0.26094577 2.2940001
-0.83566654 -0.26094577 2.2940001
-0.82680714 -0.26003575 2.286
-0.81763035 -0.25901201 2.2770002
-0.81170869 -0.25901201 2.2770002
-0.80578697 -0.25901201 2.2770002
-0.79986531 -0.25901201 2.2770002
-0.79394358 -0.25901201 2.2770002
-0.78802192 -0.25901201 2.2770002
-0.77935231 -0.25810197 2.2690001
-0.77038354 -0.2570782 2.26
-0.76179987 -0.25616822 2.2520001
-0.75594324 -0.25616822 2.2520001
-0.75008649 -0.25616822 2.2520001
-0.74422985 -0.25616822 2.2520001
-0.74099612 -0.2570782 2.26
-0.73804617 -0.25810197 2.2690001
-0.73472667 -0.25901201 2.2770002
-0.72880501 -0.25901201 2.2770002
-0.72828031 -0.26094577 2.2940001
-0.72231442 -0.26094577 2.2940001
-0.71915895 -0.26196954 2.3030002
-0.71564698 -0.26287955 2.3110001
-0.7124005 -0.26390332 2.3200002
-0.70362675 -0.26287955 2.3110001
-0.69761664 -0.26287955 2.3110001
-0.69429994 -0.26390332 2.3200002
-0.68559641 -0.26287955 2.3110001
-0.67958629 -0.26287955 2.3110001
-0.67124444 -0.26196954 2.3030002
-0.66265541 -0.26094577 2.2940001
-0.65439934 -0.26003575 2.286
-0.64590132 -0.25901201 2.2770002
-0.6399796 -0.25901201 2.2770002
-0.63183022 -0.25810197 2.2690001
-0.62592936 -0.25810197 2.2690001
-0.62002844 -0.25810197 2.2690001
-0.61629289 -0.25901201 2.2770002
-0.61037117 -0.25901201 2.2770002
-0.60683858 -0.26003575 2.286
-0.60299635 -0.26094577 2.2940001
-0.5993728 -0.26196954 2.3030002
-0.59776366 -0.26390332 2.3200002
-0.3159599 -0.15174441 1.3340001
-0.31249064 -0.15174441 1.3340001
-0.30971628 -0.15208565 1.337
-0.3055521 -0.15174441 1.3340001
-0.30208281 -0.15174441 1.3340001
-0.29861355 -0.15174441 1.3340001
-0.2944805 -0.15140314 1.3310001
-0.29101905 -0.15140314 1.3310001
-0.28755757 -0.15140314 1.3310001
-0.28409609 -0.15140314 1.3310001
-0.28000209 -0.15106189 1.3280001
-0.27592367 -0.15072064 1.325
-0.27124393 -0.15003812 1.319
-0.2674076 -0.14981063 1.317
-0.26277989 -0.14912812 1.3110001
-0.25719416 -0.14787686 1.3000001
-0.25225139 -0.14696684 1.2920001
-0.24677229 -0.14571556 1.281
-0.24097036 -0.1442368 1.268
-0.23523603 -0.14275804 1.2550001
-0.2301238 -0.14162052 1.245
-0.22506362 -0.14048301 1.235
-0.22005545 -0.1393455 1.225
-0.21563038 -0.13854924 1.2180001
-0.21159062 -0.13798048 1.2130001
-0.20757684 -0.13741173 1.2080001
-0.20443524 -0.13741173 1.2080001
-0.20129366 -0.13741173 1.2080001
-0.197824 -0.13718422 1.2060001
-0.19468762 -0.13718422 1.2060001
-0.19155122 -0.13718422 1.2060001
-0.18841484 -0.13718422 1.2060001
-0.18527845 -0.13718422 1.2060001
-0.18214205 -0.13718422 1.2060001
-0.17900567 -0.13718422 1.2060001
-0.17586927 -0.13718422 1.2060001
-0.17273289 -0.13718422 1.2060001
-0.16959649 -0.13718422 1.2060001
-0.16604602 -0.13684297 1.2030001
-0.16264659 -0.13661547 1.2010001
-0.15925753 -0.13638794 1.199
-0.15613934 -0.13638794 1.199
-0.15302117 -0.13638794 1.199
-0.14952792 -0.13604671 1.1960001
-0.14641754 -0.13604671 1.1960001
-0.14330715 -0.13604671 1.1960001
-0.14019677 -0.13604671 1.1960001
-0.13765949 -0.13661547 1.2010001
-0.13476014 -0.13684297 1.2030001
-0.13195981 -0.13718422 1.2060001
-0.12903705 -0.13741173 1.2080001
-0.12610389 -0.13763922 1.21
-0.12326196 -0.13798048 1.2130001
-0.1203054 -0.13820797 1.215
-0.11743485 -0.13854924 1.2180001
-0.11445488 -0.13877673 1.22
-0.11128208 -0.13877673 1.22
-0.10828651 -0.13900423 1.222
-0.10536655 -0.1393455 1.225
-0.10218075 -0.1393455 1.225
-0.099156581 -0.13957301 1.2270001
-0.095965579 -0.13957301 1.2270001
-0.093001395 -0.13991424 1.23
-0.089948617 -0.14014176 1.2320001
-0.086744614 -0.14014176 1.2320001
-0.083540604 -0.14014176 1.2320001
-0.080206178 -0.13991424 1.23
-0.07713259 -0.14014176 1.2320001
-0.073928587 -0.14014176 1.2320001
-0.070724577 -0.14014176 1.2320001
-0.067410953 -0.13991424 1.23
-0.064212151 -0.13991424 1.23
-0.061013345 -0.13991424 1.23
-0.057673533 -0.13957301 1.2270001
-0.05439372 -0.1393455 1.225
-0.051082511 -0.13900423 1.222
-0.047904514 -0.13900423 1.222
-0.044653311 -0.13877673 1.22
-0.041480511 -0.13877673 1.22
-0.038244914 -0.13854924 1.2180001
-0.034990918 -0.13820797 1.215
-0.031831123 -0.13820797 1.215
-0.028624132 -0.13798048 1.2130001
-0.025511531 -0.13820797 1.215
-0.022351734 -0.13820797 1.215
-0.019191939 -0.13820797 1.215
-0.016071731 -0.13854924 1.2180001
-0.012925321 -0.13877673 1.22
-0.0097525222 -0.13877673 1.22
-0.0034013393 -0.13854924 1.2180001
0.0029049509 -0.13718422 1.2060001
0.005991247 -0.13604671 1.1960001
0.0090483585 -0.13525043 1.189
0.01202822 -0.13399918 1.1780001
0.014950867 -0.13274792 1.1670001
0.017739238 -0.13092789 1.151
0.02051644 -0.12956287 1.1390001
0.02343736 -0.12933537 1.1370001
0.026440732 -0.12956287 1.1390001
0.029402878 -0.12956287 1.1390001
0.032365024 -0.12956287 1.1390001
0.035451233 -0.13001788 1.143
0.038558248 -0.13047288 1.1470001
0.041939594 -0.13172415 1.1580001
0.045378145 -0.13297541 1.169
0.048873916 -0.13422668 1.1800001
0.052030727 -0.13445418 1.182
0.055244558 -0.13479544 1.1850001
0.058424775 -0.13502294 1.187
0.061511751 -0.13502294 1.187
0.06470757 -0.13525043 1.189
0.06797082 -0.1355917 1.192
0.071309298 -0.13604671 1.1960001
0.26488128 -0.29017988 2.5510001
0.26821607 -0.28665361 2.5200002
0.27476972 -0.28665361 2.5200002
0.28020701 -0.28551608 2.5100002
0.28547803 -0.2842648 2.4990001
0.29326227 -0.28551608 2.5100002
0.30098432 -0.28665361 2.5200002
0.30753797 -0.28665361 2.5200002
0.31284523 -0.28551608 2.5100002
0.31937289 -0.28551608 2.5100002
0.32590052 -0.28551608 2.5100002
0.33242819 -0.28551608 2.5100002
0.33895582 -0.28551608 2.5100002
0.34548345 -0.28551608 2.5100002
0.35341355 -0.28665361 2.5200002
0.3629669 -0.28904238 2.5410001
0.3742294 -0.29268241 2.5730002
0.38402984 -0.29507118 2.5940001
0.3958979 -0.29893872 2.628
0.40610385 -0.30144128 2.6500001
0.41658005 -0.30405757 2.6730001
0.41814438 -0.30019 2.6390002
0.42410374 -0.29017988 2.5510001
0.42381516 -0.28551608 2.5100002
0.42331329 -0.28085226 2.4690001
0.4264273 -0.27869099 2.45
0.43103239 -0.27755347 2.4400001
0.43737799 -0.27755347 2.4400001
0.44717881 -0.27971476 2.4590001
0.45541838 -0.28085226 2.4690001
0.45996884 -0.27971476 2.4590001
0.46826041 -0.28085226 2.4690001
0.47468141 -0.28085226 2.4690001
0.48499957 -0.28312728 2.4890001
0.4914726 -0.28312728 2.4890001
0.49794564 -0.28312728 2.4890001
0.50441867 -0.28312728 2.4890001
0.50883907 -0.28198978 2.4790001
0.51528615 -0.28198978 2.4790001
0.52173316 -0.28198978 2.4790001
0.52604955 -0.28085226 2.4690001
0.53031397 -0.27971476 2.4590001
0.53670895 -0.27971476 2.4590001
0.54111618 -0.27869099 2.45
0.54525316 -0.27755347 2.4400001
0.5493381 -0.27641594 2.4300001
0.55359966 -0.27539217 2.421
0.55758321 -0.27425468 2.411
0.56174862 -0.27323094 2.4020002
0.56350249 -0.27106965 2.3830001
0.56754822 -0.27004588 2.3740001
0.57372218 -0.27004588 2.3740001
0.57769769 -0.26902211 2.365
0.58162647 -0.26799837 2.3560002
0.58550835 -0.2669746 2.3470001
0.58934337 -0.26595083 2.3380001
0.59542376 -0.26595083 2.3380001
0.59918857 -0.26492706 2.329
0.6029067 -0.26390332 2.3200002
0.60657793 -0.26287955 2.3110001
0.61046749 -0.26196954 2.3030002
0.61404771 -0.26094577 2.2940001
0.62001359 -0.26094577 2.2940001
0.62597948 -0.26094577 2.2940001
0.62974155 -0.26003575 2.286
0.63568664 -0.26003575 2.286
0.63910568 -0.25901201 2.2770002
0.64502734 -0.25901201 2.2770002
0.65094906 -0.25901201 2.2770002
0.65687072 -0.25901201 2.2770002
0.66046375 -0.25810197 2.2690001
0.66636461 -0.25810197 2.2690001
0.67226553 -0.25810197 2.2690001
0.67816639 -0.25810197 2.2690001
0.68406731 -0.25810197 2.2690001
0.68996817 -0.25810197 2.2690001
0.69586909 -0.25810197 2.2690001
0.70176995 -0.25810197 2.2690001
0.71016598 -0.25901201 2.2770002
0.72143394 -0.26094577 2.2940001
0.73279035 -0.26287955 2.3110001
0.74455482 -0.26492706 2.329
0.75931364 -0.26799837 2.3560002
0.77713674 -0.27209342 2.3920002
0.79580218 -0.27641594 2.4300001
0.81499529 -0.28085226 2.4690001
0.83505678 -0.28551608 2.5100002
0.86270779 -0.29268241 2.5730002
0.88392872 -0.29757375 2.6160002
0.91422606 -0.30542257 2.6850002
0.94591171 -0.3136127 2.7570002
0.97486043 -0.32077903 2.8200002
1.000654 -0.32680786 2.8730001
1.0175998 -0.32987913 2.9000001
1.0399886 -0.33465669 2.9420002
1.0576104 -0.33784172 2.97
1.0757366 -0.34114051 2.9990001
1.083536 -0.34114051 2.9990001
1.0862409 -0.33954799 2.9850001
1.0885062 -0.33784172 2.97
1.0962303 -0.33784172 2.97
1.0831388 -0.33147165 2.914
1.0753708 -0.32680786 2.8730001
1.0628666 -0.32077903 2.8200002
1.0462918 -0.3136127 2.7570002
1.0259502 -0.30542257 2.6850002
1.0110048 -0.29893872 2.628
1.0004106 -0.29381993 2.5830002
0.9743759 -0.2842648 2.4990001
0.95379192 -0.27641594 2.4300001
0.93798554 -0.27004588 2.3740001
0.90469819 -0.2570782 2.26
0.89445925 -0.25252816 2.22
0.88117379 -0.24718185 2.1730001
0.84478962 -0.23546545 2.0700002
0.62535453 -0.16892086 1.485
0.60408902 -0.16118577 1.4170001
0.60219824 -0.15970699 1.404
0.59894526 -0.15788697 1.388
0.59300447 -0.15538445 1.3660001
0.59262645 -0.15436068 1.3570001
0.58956575 -0.15265441 1.342
0.59084624 -0.15208565 1.337
0.5929898 -0.15174441 1.3340001
0.59511769 -0.15140314 1.3310001
0.59723002 -0.15106189 1.3280001
0.60204065 -0.15140314 1.3310001
0.6068669 -0.15174441 1.3340001
0.61308128 -0.1524269 1.34
0.6188668 -0.15299566 1.345
0.62514102 -0.15367818 1.3510001
0.63005048 -0.15401943 1.3540001
0.63497555 -0.15436068 1.3570001
0.63850468 -0.15436068 1.3570001
0.6420337 -0.15436068 1.3570001
0.64556283 -0.15436068 1.3570001
0.6490919 -0.15436068 1.3570001
0.65262103 -0.15436068 1.3570001
0.65324891 -0.15367818 1.3510001
0.65530401 -0.15333691 1.348
0.65587723 -0.15265441 1.342
0.65691066 -0.15208565 1.337
0.65594238 -0.15106189 1.3280001
0.65492725 -0.15003812 1.319
0.65436447 -0.14912812 1.3110001
0.65376002 -0.14821811 1.3030001
0.65260965 -0.14719434 1.294
0.65191942 -0.14628433 1.286
0.65271622 -0.14571556 1.281
0.65348691 -0.14514682 1.276
-0.88121414 -0.19306889 1.7370001
-0.84792781 -0.18673329 1.6800001
-0.82548249 -0.18273187 1.6440001
-0.81271523 -0.18084231 1.6270001
-0.80401164 -0.17984194 1.618
-0.79782659 -0.17939734 1.6140001
-0.79166222 -0.17895274 1.6100001
-0.78502959 -0.17839698 1.605
-0.78085554 -0.17839698 1.605
-0.77910113 -0.17895274 1.6100001
-0.77250743 -0.17839698 1.605
-0.76833338 -0.17839698 1.605
-0.76225489 -0.17795238 1.6010001
-0.75809127 -0.17795238 1.6010001
-0.75392759 -0.17795238 1.6010001
-0.74976397 -0.17795238 1.6010001
-0.74746311 -0.17839698 1.605
-0.74745709 -0.17939734 1.6140001
-0.74510163 -0.17984194 1.618
-0.74272543 -0.18028656 1.6220001
-0.74260485 -0.1812869 1.631
-0.74832278 -0.18373223 1.6530001
-0.75842726 -0.18728904 1.6850001
-0.91703981 -0.23319431 2.098
-0.93070179 -0.23808496 2.1420002
-0.94154334 -0.24230868 2.1800001
-0.95991474 -0.24853311 2.2360001
-0.96434039 -0.25120074 2.26
-0.96567267 -0.25309032 2.2770002
-0.96354437 -0.25409064 2.286
-0.95759928 -0.25409064 2.286
-0.95498461 -0.25497988 2.2940001
-0.95605153 -0.25686944 2.3110001
-0.94770777 -0.25786978 2.3200002
-0.93802118 -0.25686944 2.3110001
-0.9251551 -0.25497988 2.2940001
-0.91237742 -0.25309032 2.2770002
-0.90327096 -0.25220108 2.2690001
-0.89381063 -0.25120074 2.26
-0.88793314 -0.25120074 2.26
-0.87893337 -0.25031152 2.2520001
-0.87307674 -0.25031152 2.2520001
-0.86722004 -0.25031152 2.2520001
-0.86786568 -0.25220108 2.2690001
-0.86196476 -0.25220108 2.2690001
-0.8560639 -0.25220108 2.2690001
-0.85016298 -0.25220108 2.2690001
-0.84426212 -0.25220108 2.2690001
-0.8350358 -0.25120074 2.26
-0.82915837 -0.25120074 2.26
-0.82328087 -0.25120074 2.26
-0.81450999 -0.25031152 2.2520001
-0.80578065 -0.24942234 2.2440002
-0.79994482 -0.24942234 2.2440002
-0.79410893 -0.24942234 2.2440002
-0.78827304 -0.24942234 2.2440002
-0.78243715 -0.24942234 2.2440002
-0.77660131 -0.24942234 2.2440002
-0.7735132 -0.25031152 2.2520001
-0.76492959 -0.24942234 2.2440002
-0.7590937 -0.24942234 2.2440002
-0.75594324 -0.25031152 2.2520001
-0.75008649 -0.25031152 2.2520001
-0.74687362 -0.25120074 2.26
-0.74099612 -0.25120074 2.26
-0.73804617 -0.25220108 2.2690001
-0.73472667 -0.25309032 2.2770002
-0.72880501 -0.25309032 2.2770002
-0.72574049 -0.25409064 2.286
-0.72231442 -0.25497988 2.2940001
-0.71634847 -0.25497988 2.2940001
-0.71038264 -0.25497988 2.2940001
-0.70718032 -0.25598022 2.3030002
-0.70119107 -0.25598022 2.3030002
-0.69761664 -0.25686944 2.3110001
-0.69160652 -0.25686944 2.3110001
-0.68322307 -0.25598022 2.3030002
-0.67723382 -0.25598022 2.3030002
-0.67124444 -0.25598022 2.3030002
-0.66265541 -0.25497988 2.2940001
-0.65439934 -0.25409064 2.286
-0.64590132 -0.25309032 2.2770002
-0.6399796 -0.25309032 2.2770002
-0.63183022 -0.25220108 2.2690001
-0.62592936 -0.25220108 2.2690001
-0.62221456 -0.25309032 2.2770002
-0.61629289 -0.25309032 2.2770002
-0.61037117 -0.25309032 2.2770002
-0.6089623 -0.25497988 2.2940001
-0.60536212 -0.25598022 2.3030002
-0.60008252 -0.25887012 2.329
-0.32014751 -0.14860857 1.337
-0.31667045 -0.14860857 1.337
-0.31319335 -0.14860857 1.337
-0.31041124 -0.14894202 1.34
-0.30692637 -0.14894202 1.34
-0.30276212 -0.14860857 1.337
-0.29928505 -0.14860857 1.337
-0.29580799 -0.14860857 1.337
-0.29233092 -0.14860857 1.337
-0.28885382 -0.14860857 1.337
-0.28537676 -0.14860857 1.337
-0.28126717 -0.14827514 1.3340001
-0.27717316 -0.14794168 1.3310001
-0.27309474 -0.14760822 1.3280001
-0.26842281 -0.14694132 1.322
-0.26398253 -0.14638557 1.317
-0.2587769 -0.14538521 1.3080001
-0.25322759 -0.14416255 1.2970001
-0.24773549 -0.14293988 1.286
-0.24192055 -0.14149493 1.273
-0.23673552 -0.14038342 1.263
-0.231048 -0.13893846 1.25
-0.2259748 -0.13782695 1.24
-0.22041473 -0.136382 1.2270001
-0.21563038 -0.13538164 1.2180001
-0.21193948 -0.13504818 1.215
-0.20792051 -0.13449243 1.21
-0.20443524 -0.13427013 1.2080001
-0.20129366 -0.13427013 1.2080001
-0.19815207 -0.13427013 1.2080001
-0.19468762 -0.13404784 1.2060001
-0.19155122 -0.13404784 1.2060001
-0.18841484 -0.13404784 1.2060001
-0.18527845 -0.13404784 1.2060001
-0.18214205 -0.13404784 1.2060001
-0.17900567 -0.13404784 1.2060001
-0.17586927 -0.13404784 1.2060001
-0.17273289 -0.13404784 1.2060001
-0.16959649 -0.13404784 1.2060001
-0.16604602 -0.13371438 1.2030001
-0.16264659 -0.13349208 1.2010001
-0.15925753 -0.13326977 1.199
-0.1557487 -0.13293633 1.1960001
-0.1526383 -0.13293633 1.1960001
-0.14927787 -0.13271402 1.194
-0.14617269 -0.13271402 1.194
-0.14330715 -0.13293633 1.1960001
-0.14019677 -0.13293633 1.1960001
-0.13708639 -0.13293633 1.1960001
-0.1345361 -0.13349208 1.2010001
-0.13195981 -0.13404784 1.2060001
-0.12903705 -0.13427013 1.2080001
-0.12610389 -0.13449243 1.21
-0.12326196 -0.13482589 1.2130001
-0.1203054 -0.13504818 1.215
-0.11743485 -0.13538164 1.2180001
-0.11426725 -0.13538164 1.2180001
-0.11128208 -0.13560393 1.22
-0.10828651 -0.13582623 1.222
-0.10536655 -0.13615969 1.225
-0.10234758 -0.136382 1.2270001
-0.099399008 -0.13671544 1.23
-0.09635663 -0.13693775 1.2320001
-0.093152627 -0.13693775 1.2320001
-0.090313673 -0.13749351 1.2370001
-0.087096661 -0.13749351 1.2370001
-0.084083065 -0.13782695 1.24
-0.080662638 -0.13749351 1.2370001
-0.077445626 -0.13749351 1.2370001
-0.074108601 -0.1372712 1.235
-0.070896797 -0.1372712 1.235
-0.067684986 -0.1372712 1.235
-0.064316563 -0.13693775 1.2320001
-0.06111256 -0.13693775 1.2320001
-0.057814538 -0.13671544 1.23
-0.054482531 -0.136382 1.2270001
-0.051207915 -0.13615969 1.225
-0.048022117 -0.13615969 1.225
-0.044726513 -0.13582623 1.222
-0.041548513 -0.13582623 1.222
-0.038307711 -0.13560393 1.22
-0.035077315 -0.13538164 1.2180001
-0.031909719 -0.13538164 1.2180001
-0.028742122 -0.13538164 1.2180001
-0.025574522 -0.13538164 1.2180001
-0.022443717 -0.13560393 1.22
-0.019239327 -0.13538164 1.2180001
-0.016098121 -0.13560393 1.22
-0.01294651 -0.13582623 1.222
-0.0097685093 -0.13582623 1.222
-0.0034069244 -0.13560393 1.22
0.0029145859 -0.13449243 1.21
0.0060062748 -0.13326977 1.199
0.0090483585 -0.13215826 1.189
0.012048641 -0.1311579 1.1800001
0.014950867 -0.12971295 1.1670001
0.017739238 -0.12793453 1.151
0.02051644 -0.12660073 1.1390001
0.02343736 -0.12637843 1.1370001
0.026440732 -0.12660073 1.1390001
0.029454507 -0.12682302 1.141
0.032421853 -0.12682302 1.141
0.035575297 -0.12748994 1.1470001
0.038692713 -0.12793453 1.151
0.042084459 -0.1291572 1.1620001
0.04545578 -0.13015755 1.171
0.048956752 -0.1313802 1.182
0.052162785 -0.13171366 1.1850001
0.055337794 -0.13193595 1.187
0.058523212 -0.13215826 1.189
0.061615393 -0.13215826 1.189
0.064870834 -0.13249171 1.192
0.068084858 -0.13271402 1.194
0.071309298 -0.13293633 1.1960001
0.27268633 -0.28476825 2.562
0.27814981 -0.28354561 2.5510001
0.28132337 -0.28009996 2.5200002
0.28547803 -0.27776578 2.4990001
0.29326227 -0.27898845 2.5100002
0.30098432 -0.28009996 2.5200002
0.30753797 -0.28009996 2.5200002
0.31284523 -0.27898845 2.5100002
0.31937289 -0.27898845 2.5100002
0.32590052 -0.27898845 2.5100002
0.33242819 -0.27898845 2.5100002
0.33895582 -0.27898845 2.5100002
0.34548345 -0.27898845 2.5100002
0.35481596 -0.28121147 2.5300002
0.36439535 -0.28354561 2.5510001
0.3742294 -0.28599092 2.5730002
0.38565832 -0.28954774 2.605
0.39755502 -0.29332688 2.6390002
0.40794283 -0.29588336 2.6620002
0.41486573 -0.29588336 2.6620002
0.41814438 -0.29332688 2.6390002
0.42130339 -0.29077041 2.6160002
0.42270628 -0.28710243 2.5830002
0.42410374 -0.28354561 2.5510001
0.42381516 -0.27898845 2.5100002
0.42331329 -0.27443126 2.4690001
0.4264273 -0.27231938 2.45
0.43103239 -0.27120787 2.4400001
0.43737799 -0.27120787 2.4400001
0.44554213 -0.27231938 2.45
0.45357382 -0.27331975 2.4590001
0.45996884 -0.27331975 2.4590001
0.46636385 -0.27331975 2.4590001
0.47468141 -0.27443126 2.4690001
0.483051 -0.27554277 2.4790001
0.48949802 -0.27554277 2.4790001
0.49594507 -0.27554277 2.4790001
0.50441867 -0.27665427 2.4890001
0.50883907 -0.27554277 2.4790001
0.5132075 -0.27443126 2.4690001
0.51962852 -0.27443126 2.4690001
0.52391893 -0.27331975 2.4590001
0.53031397 -0.27331975 2.4590001
0.53474456 -0.27231938 2.45
0.54111618 -0.27231938 2.45
0.54525316 -0.27120787 2.4400001
0.5493381 -0.27009636 2.4300001
0.55359966 -0.26909599 2.421
0.55758321 -0.26798448 2.411
0.56174862 -0.26698416 2.4020002
0.56563073 -0.26587266 2.3920002
0.56754822 -0.26387191 2.3740001
0.57372218 -0.26387191 2.3740001
0.57769769 -0.26287156 2.365
0.58162647 -0.26187122 2.3560002
0.58775359 -0.26187122 2.3560002
0.59161204 -0.26087084 2.3470001
0.59542376 -0.2598705 2.3380001
0.59918857 -0.25887012 2.329
0.60524553 -0.25887012 2.329
0.60894018 -0.25786978 2.3200002
0.61258805 -0.25686944 2.3110001
0.61645681 -0.25598022 2.3030002
0.62244612 -0.25598022 2.3030002
0.62597948 -0.25497988 2.2940001
0.63194543 -0.25497988 2.2940001
0.63568664 -0.25409064 2.286
0.64163178 -0.25409064 2.286
0.64757681 -0.25409064 2.286
0.65352196 -0.25409064 2.286
0.65687072 -0.25309032 2.2770002
0.66279244 -0.25309032 2.2770002
0.66636461 -0.25220108 2.2690001
0.67226553 -0.25220108 2.2690001
0.67547643 -0.25120074 2.26
0.68135393 -0.25120074 2.26
0.68723142 -0.25120074 2.26
0.69586909 -0.25220108 2.2690001
0.70176995 -0.25220108 2.2690001
0.71016598 -0.25309032 2.2770002
0.72426432 -0.25598022 2.3030002
0.73564416 -0.25786978 2.3200002
0.75030923 -0.26087084 2.3470001
0.76801544 -0.26487228 2.3830001
0.78655851 -0.26909599 2.421
0.8052994 -0.27331975 2.4590001
0.83182997 -0.28009996 2.5200002
0.85235667 -0.28476825 2.562
0.88114882 -0.29210421 2.628
0.90318859 -0.297106 2.6730001
0.92648387 -0.30244124 2.7210002
0.95894921 -0.31066638 2.7950001
0.9793545 -0.31489015 2.8330002
1.000654 -0.31933615 2.8730001
1.0274249 -0.32544947 2.9280002
1.0498866 -0.33011776 2.97
1.0629519 -0.33178505 2.9850001
1.0757366 -0.33334115 2.9990001
1.0889555 -0.33500841 3.0140002
1.0913354 -0.33334115 2.9990001
1.0940038 -0.33178505 2.9850001
1.1017667 -0.33178505 2.9850001
1.0883427 -0.32544947 2.9280002
1.080611 -0.32089227 2.8870001
1.0677663 -0.31489015 2.8330002
1.0462918 -0.30644268 2.7570002
1.0305355 -0.2997736 2.697
1.0110048 -0.29210421 2.628
1.0004106 -0.28710243 2.5830002
0.9743759 -0.27776578 2.4990001
0.957717 -0.27120787 2.4400001
0.94509751 -0.26587266 2.3920002
0.91510624 -0.25409064 2.286
0.90412915 -0.24942234 2.2440002
0.89374459 -0.24497628 2.204
0.85948163 -0.23408353 2.1060002
0.60167509 -0.1578341 1.4200001
0.59428376 -0.15494417 1.3940001
0.59276211 -0.15361036 1.3820001
0.58945191 -0.15183195 1.3660001
0.5851903 -0.14983124 1.348
0.58389205 -0.14860857 1.337
0.58341533 -0.14760822 1.3280001
0.5828917 -0.14660786 1.319
0.58543295 -0.14638557 1.317
0.58885795 -0.14638557 1.317
0.59228307 -0.14638557 1.317
0.59570807 -0.14638557 1.317
0.60140777 -0.14694132 1.322
0.6062184 -0.14727476 1.325
0.61242509 -0.14794168 1.3310001
0.62005103 -0.14894202 1.34
0.62586254 -0.14949778 1.345
0.62936038 -0.14949778 1.345
0.63426989 -0.14983124 1.348
0.63919497 -0.15016469 1.3510001
0.64128125 -0.14983124 1.348
